# .PCD v0.7 - Point Cloud Data file format
VERSION 0.7
FIELDS x y z
SIZE 4 4 4
TYPE F F F
COUNT 1 1 1
WIDTH 1569
HEIGHT 1
VIEWPOINT 0 0 0 1 0 0 0
POINTS 1569
DATA ascii
0.05686586 0.15862583 1.138
0.058861151 0.15862583 1.138
0.061444689 0.16015911 1.149
0.06345927 0.16015911 1.149
0.06484703 0.15862583 1.138
0.066607378 0.15806825 1.1340001
0.068353698 0.1575107 1.13
0.07058394 0.15806825 1.1340001
0.072572216 0.15806825 1.1340001
0.074560501 0.15806825 1.1340001
0.076278768 0.1575107 1.13
0.077498212 0.15597741 1.1190001
0.0802413 0.1575107 1.13
0.081422172 0.15597741 1.1190001
0.083384149 0.15597741 1.1190001
0.085346133 0.15597741 1.1190001
0.087308109 0.15597741 1.1190001
0.088950984 0.15541986 1.115
0.090905949 0.15541986 1.115
0.093194053 0.15597741 1.1190001
0.095156029 0.15597741 1.1190001
0.097118013 0.15597741 1.1190001
0.099079989 0.15597741 1.1190001
0.10104197 0.15597741 1.1190001
0.10300395 0.15597741 1.1190001
0.10496593 0.15597741 1.1190001
0.10654568 0.15541986 1.115
0.10850065 0.15541986 1.115
0.11085187 0.15597741 1.1190001
0.11241058 0.15541986 1.115
0.11405784 0.15500169 1.1120001
0.11600754 0.15500169 1.1120001
0.11753295 0.15444411 1.108
0.11947564 0.15444411 1.108
0.12108959 0.15402594 1.105
0.12258167 0.15346839 1.1010001
0.12405973 0.15291083 1.097
0.12690188 0.15402594 1.105
0.12883931 0.15402594 1.105
0.13077675 0.15402594 1.105
0.13271418 0.15402594 1.105
0.13416418 0.15346839 1.1010001
0.13609461 0.15346839 1.1010001
0.13852648 0.15402594 1.105
0.13995545 0.15346839 1.1010001
0.14137039 0.15291083 1.097
0.14290193 0.15249266 1.0940001
0.14429057 0.1519351 1.09
0.14673822 0.15249266 1.0940001
0.14865637 0.15249266 1.0940001
0.14864761 0.1505412 1.08
0.15291083 0.15291083 1.097
0.15483424 0.15291083 1.097
0.15675764 0.15291083 1.097
0.15868105 0.15291083 1.097
0.16016525 0.15249266 1.0940001
0.16208339 0.15249266 1.0940001
0.1634019 0.1519351 1.09
0.16591969 0.15249266 1.0940001
0.16722417 0.1519351 1.09
0.1691353 0.1519351 1.09
0.17104644 0.1519351 1.09
0.17295757 0.1519351 1.09
0.1748687 0.1519351 1.09
0.17402272 0.14956547 1.0730001
0.17590404 0.14956547 1.0730001
0.17844813 0.15012303 1.077
0.1796667 0.14956547 1.0730001
0.18154803 0.14956547 1.0730001
0.18342935 0.14956547 1.0730001
0.18531068 0.14956547 1.0730001
0.18719201 0.14956547 1.0730001
0.18854471 0.1491473 1.0700001
0.19042076 0.1491473 1.0700001
-0.18241242 0.14467192 1.0250001
-0.18061525 0.14467192 1.0250001
-0.17829472 0.14424849 1.0220001
-0.17650281 0.14424849 1.0220001
-0.1747109 0.14424849 1.0220001
-0.17291899 0.14424849 1.0220001
-0.17112708 0.14424849 1.0220001
-0.16883811 0.14382505 1.0190001
-0.16705146 0.14382505 1.0190001
-0.16526482 0.14382505 1.0190001
-0.16347817 0.14382505 1.0190001
-0.16169152 0.14382505 1.0190001
-0.15990488 0.14382505 1.0190001
-0.15858375 0.14424849 1.0220001
-0.15679184 0.14424849 1.0220001
-0.15545492 0.14467192 1.0250001
-0.15365775 0.14467192 1.0250001
-0.15186058 0.14467192 1.0250001
-0.15050262 0.14509535 1.028
-0.14870019 0.14509535 1.028
-0.14732647 0.14551878 1.031
-0.14424849 0.14424849 1.0220001
-0.14287475 0.14467192 1.0250001
-0.14066467 0.14424849 1.0220001
-0.14050336 0.14594221 1.034
-0.13869041 0.14594221 1.034
-0.13740698 0.14650679 1.0380001
-0.13506453 0.14594221 1.034
-0.13325158 0.14594221 1.034
-0.13143863 0.14594221 1.034
-0.13050322 0.1469302 1.041
-0.12867801 0.1469302 1.041
-0.12599979 0.14594221 1.034
-0.12418684 0.14594221 1.034
-0.1223739 0.14594221 1.034
-0.12172692 0.14735363 1.044
-0.12024097 0.14777707 1.0470001
-0.11840523 0.14777707 1.0470001
-0.11556746 0.14650679 1.0380001
-0.11582958 0.1491885 1.057
-0.11397631 0.1491885 1.057
-0.11244126 0.14961194 1.0600001
-0.11058273 0.14961194 1.0600001
-0.11046789 0.15201136 1.077
-0.10857955 0.15201136 1.077
-0.10669121 0.15201136 1.077
-0.1041217 0.15102337 1.0700001
-0.10195896 0.15059994 1.067
-0.099712946 0.15003537 1.0630001
-0.098493502 0.15102337 1.0700001
-0.096346542 0.15059994 1.067
-0.094475739 0.15059994 1.067
-0.092604928 0.15059994 1.067
-0.090734124 0.15059994 1.067
-0.089363016 0.15144679 1.0730001
-0.088052399 0.1524348 1.08
-0.08591947 0.15201136 1.077
-0.084031127 0.15201136 1.077
-0.082142793 0.15201136 1.077
-0.081521235 0.15441081 1.0940001
-0.079603083 0.15441081 1.0940001
-0.0774009 0.15384623 1.09
-0.075974561 0.15483424 1.097
-0.074051157 0.15483424 1.097
-0.071930498 0.15441081 1.0940001
-0.07020434 0.15483424 1.097
-0.068094209 0.15441081 1.0940001
-0.066357531 0.15483424 1.097
-0.064434126 0.15483424 1.097
-0.063365467 0.15695138 1.1120001
-0.061194841 0.15638681 1.108
-0.059840389 0.15793939 1.1190001
-0.057878409 0.15793939 1.1190001
-0.055716548 0.15737481 1.115
-0.053761583 0.15737481 1.115
-0.051481374 0.15638681 1.108
-0.050030489 0.15793939 1.1190001
-0.047896683 0.15737481 1.115
-0.045818105 0.15695138 1.1120001
-0.043710601 0.15638681 1.108
-0.041654818 0.15596338 1.105
-0.039717384 0.15596338 1.105
-0.03777995 0.15596338 1.105
-0.035842516 0.15596338 1.105
-0.031967651 0.15596338 1.105
-0.030030217 0.15596338 1.105
-0.028092783 0.15596338 1.105
-0.026155351 0.15596338 1.105
-0.024371333 0.15695138 1.1120001
-0.022482116 0.15737481 1.115
-0.02052715 0.15737481 1.115
-0.01863881 0.15793939 1.1190001
-0.01667683 0.15793939 1.1190001
-0.01471485 0.15793939 1.1190001
-0.012878234 0.15949197 1.13
-0.010896967 0.15949197 1.13
-0.0089157 0.15949197 1.13
-0.0069589801 0.16005655 1.1340001
-0.0049707 0.16005655 1.1340001
-0.0029824199 0.16005655 1.1340001
-0.00099414005 0.16005655 1.1340001
0.00099414005 0.16005655 1.1340001
0.0029929399 0.16062111 1.138
0.0049882331 0.16062111 1.138
0.0069098868 0.1589274 1.126
0.0089157 0.15949197 1.13
0.01079089 0.15793939 1.1190001
0.012878234 0.15949197 1.13
0.0149121 0.16005655 1.1340001
0.016900379 0.16005655 1.1340001
0.018822033 0.15949197 1.13
0.020803301 0.15949197 1.13
0.022784567 0.15949197 1.13
0.024765832 0.15949197 1.13
0.02684178 0.16005655 1.1340001
0.028931754 0.16062111 1.138
0.030927047 0.16062111 1.138
0.03280662 0.16005655 1.1340001
0.034917634 0.16062111 1.138
0.037139982 0.16160911 1.1450001
0.039147548 0.16160911 1.1450001
0.041298889 0.16217369 1.149
0.043011896 0.16104454 1.141
0.0447363 0.16005655 1.1340001
0.046394952 0.1589274 1.126
0.049185384 0.16160911 1.1450001
0.050879981 0.16062111 1.138
0.052875273 0.16062111 1.138
0.054677699 0.16005655 1.1340001
0.056466099 0.15949197 1.13
0.058240473 0.1589274 1.126
0.06064254 0.16005655 1.1340001
0.063017428 0.16104454 1.141
0.064619102 0.16005655 1.1340001
0.066137485 0.1589274 1.126
0.068353698 0.15949197 1.13
0.070334964 0.15949197 1.13
0.072572216 0.16005655 1.1340001
0.074560501 0.16005655 1.1340001
0.076278768 0.15949197 1.13
0.077498212 0.15793939 1.1190001
0.079460189 0.15793939 1.1190001
0.081131116 0.15737481 1.115
0.083086081 0.15737481 1.115
0.084812239 0.15695138 1.1120001
0.086996019 0.15737481 1.115
0.088711649 0.15695138 1.1120001
0.090661362 0.15695138 1.1120001
0.092860915 0.15737481 1.115
0.09481588 0.15737481 1.115
0.097118013 0.15793939 1.1190001
0.099079989 0.15793939 1.1190001
0.10068078 0.15737481 1.115
0.10263575 0.15737481 1.115
0.10459071 0.15737481 1.115
0.10625901 0.15695138 1.1120001
0.10820872 0.15695138 1.1120001
0.11045562 0.15737481 1.115
0.11210813 0.15695138 1.1120001
0.11333985 0.15596338 1.105
0.11559025 0.15638681 1.108
0.11679041 0.15539882 1.1010001
0.11872083 0.15539882 1.1010001
0.12021291 0.15483424 1.097
0.12213632 0.15483424 1.097
0.12405973 0.15483424 1.097
0.12598313 0.15483424 1.097
0.12837292 0.15539882 1.1010001
0.12982994 0.15483424 1.097
0.13223377 0.15539882 1.1010001
0.13367677 0.15483424 1.097
0.13560016 0.15483424 1.097
0.13752358 0.15483424 1.097
0.13906564 0.15441081 1.0940001
0.14098378 0.15441081 1.0940001
0.14237943 0.15384623 1.09
0.14389344 0.1534228 1.087
0.14579931 0.1534228 1.087
0.14729753 0.15299937 1.0840001
0.14864761 0.1524348 1.08
0.1505412 0.1524348 1.08
0.1524348 0.1524348 1.08
0.15432841 0.1524348 1.08
0.156222 0.1524348 1.08
0.15957963 0.15384623 1.09
0.16149077 0.15384623 1.09
0.1619028 0.1524348 1.08
0.1637964 0.1524348 1.08
0.16569 0.1524348 1.08
0.16649741 0.15144679 1.0730001
0.16790797 0.15102337 1.0700001
0.1720055 0.15299937 1.0840001
0.1716601 0.15102337 1.0700001
0.17304961 0.15059994 1.067
0.17492042 0.15059994 1.067
0.17728829 0.15102337 1.0700001
0.17916436 0.15102337 1.0700001
0.18104044 0.15102337 1.0700001
0.18291649 0.15102337 1.0700001
0.18479256 0.15102337 1.0700001
0.18666863 0.15102337 1.0700001
0.18801607 0.15059994 1.067
0.18988687 0.15059994 1.067
0.19049966 0.14961194 1.0600001
-0.44267634 0.29693928 2.0780001
-0.18313128 0.1456117 1.0190001
-0.18187852 0.14604039 1.0220001
-0.18008661 0.14604039 1.0220001
-0.17829472 0.14604039 1.0220001
-0.17546658 0.14518301 1.016
-0.17368519 0.14518301 1.016
-0.17190382 0.14518301 1.016
-0.17012243 0.14518301 1.016
-0.16834104 0.14518301 1.016
-0.16655965 0.14518301 1.016
-0.16477826 0.14518301 1.016
-0.16299687 0.14518301 1.016
-0.1612155 0.14518301 1.016
-0.15943411 0.14518301 1.016
-0.15765272 0.14518301 1.016
-0.15587133 0.14518301 1.016
-0.15454493 0.1456117 1.0190001
-0.15230855 0.14518301 1.016
-0.15052718 0.14518301 1.016
-0.14874579 0.14518301 1.016
-0.14739835 0.1456117 1.0190001
-0.1456117 0.1456117 1.0190001
-0.14382505 0.1456117 1.0190001
-0.1420384 0.1456117 1.0190001
-0.14025176 0.1456117 1.0190001
-0.13846512 0.1456117 1.0190001
-0.13708086 0.14604039 1.0220001
-0.13687748 0.14775515 1.034
-0.13467266 0.14732647 1.031
-0.13286497 0.14732647 1.031
-0.13105728 0.14732647 1.031
-0.12962569 0.14775515 1.034
-0.12781274 0.14775515 1.034
-0.12563422 0.14732647 1.031
-0.12382653 0.14732647 1.031
-0.12201885 0.14732647 1.031
-0.12056095 0.14775515 1.034
-0.11874801 0.14775515 1.034
-0.11693506 0.14775515 1.034
-0.11556746 0.14832674 1.0380001
-0.1137475 0.14832674 1.0380001
-0.11192754 0.14832674 1.0380001
-0.11074404 0.14918412 1.044
-0.10891356 0.14918412 1.044
-0.10513425 0.14646909 1.0250001
-0.10303463 0.14604039 1.0220001
-0.10124273 0.14604039 1.0220001
-0.10344053 0.15189916 1.0630001
-0.10157674 0.15189916 1.0630001
-0.09943153 0.15147047 1.0600001
-0.097849153 0.15189916 1.0630001
-0.095985353 0.15189916 1.0630001
-0.093855932 0.15147047 1.0600001
-0.0919974 0.15147047 1.0600001
-0.090393975 0.15189916 1.0630001
-0.089363016 0.15332812 1.0730001
-0.087807812 0.15389971 1.077
-0.085600361 0.15332812 1.0730001
-0.083719037 0.15332812 1.0730001
-0.081837706 0.15332812 1.0730001
-0.081521235 0.15632895 1.0940001
-0.079603083 0.15632895 1.0940001
-0.0774009 0.15575737 1.09
-0.075766794 0.15632895 1.0940001
-0.07384865 0.15632895 1.0940001
-0.0716675 0.15575737 1.09
-0.070012353 0.15632895 1.0940001
-0.067845233 0.15575737 1.09
-0.065752633 0.15532868 1.087
-0.064022966 0.15575737 1.09
-0.06273865 0.15732923 1.1010001
-0.06042162 0.15632895 1.0940001
-0.058503471 0.15632895 1.0940001
-0.056947391 0.15732923 1.1010001
-0.055016968 0.15732923 1.1010001
-0.052749034 0.15632895 1.0940001
-0.051341984 0.15790081 1.105
-0.04922571 0.15732923 1.1010001
-0.047295291 0.15732923 1.1010001
-0.045529682 0.15790081 1.105
-0.043434449 0.15732923 1.1010001
-0.041504029 0.15732923 1.1010001
-0.039429836 0.15675764 1.097
-0.03764319 0.15732923 1.1010001
-0.035712771 0.15732923 1.1010001
-0.033905081 0.15790081 1.105
-0.031851929 0.15732923 1.1010001
-0.029921509 0.15732923 1.1010001
-0.02799109 0.15732923 1.1010001
-0.026060671 0.15732923 1.1010001
-0.024283666 0.1583295 1.108
-0.022340974 0.1583295 1.108
-0.02034305 0.15790081 1.105
-0.018572183 0.15932979 1.115
-0.016617216 0.15932979 1.115
-0.01466225 0.15932979 1.115
-0.01275287 0.15990137 1.1190001
-0.010858393 0.16090165 1.126
-0.0088841403 0.16090165 1.126
-0.0069344332 0.16147323 1.13
-0.0049531665 0.16147323 1.13
-0.0029824199 0.16204482 1.1340001
-0.00099063327 0.16147323 1.13
0.00099063327 0.16147323 1.13
0.0029824199 0.16204482 1.1340001
0.0049707 0.16204482 1.1340001
0.0068669301 0.15990137 1.1190001
0.0088289101 0.15990137 1.1190001
0.010752317 0.15932979 1.115
0.012798456 0.16047296 1.123
0.0148595 0.16147323 1.13
0.016840767 0.16147323 1.13
0.018755406 0.16090165 1.126
0.020729659 0.16090165 1.126
0.022703914 0.16090165 1.126
0.024678167 0.16090165 1.126
0.0267471 0.16147323 1.13
0.028830061 0.16204482 1.1340001
0.030709634 0.16147323 1.13
0.032575179 0.16090165 1.126
0.034672167 0.16147323 1.13
0.036523685 0.16090165 1.126
0.038908221 0.1626164 1.138
0.040903512 0.1626164 1.138
0.042446446 0.16090165 1.126
0.044302348 0.16047296 1.123
0.046271343 0.16047296 1.123
0.048240338 0.16047296 1.123
0.050343461 0.16090165 1.126
0.052503567 0.16147323 1.13
0.054291967 0.16090165 1.126
0.056266218 0.16090165 1.126
0.058085304 0.16047296 1.123
0.060214728 0.16090165 1.126
0.06202329 0.16047296 1.123
0.06416323 0.16090165 1.126
0.065961279 0.16047296 1.123
0.06811174 0.16090165 1.126
0.070085995 0.16090165 1.126
0.071612269 0.15990137 1.1190001
0.073574252 0.15990137 1.1190001
0.076008752 0.16090165 1.126
0.077775232 0.16047296 1.123
0.079957262 0.16090165 1.126
0.080912828 0.1589011 1.1120001
0.082862534 0.1589011 1.1120001
0.08450716 0.1583295 1.108
0.086449854 0.1583295 1.108
0.088392548 0.1583295 1.108
0.090335242 0.1583295 1.108
0.092277929 0.1583295 1.108
0.09481588 0.15932979 1.115
0.096770853 0.15932979 1.115
0.099079989 0.15990137 1.1190001
0.10068078 0.15932979 1.115
0.10263575 0.15932979 1.115
0.10459071 0.15932979 1.115
0.10587679 0.1583295 1.108
0.10820872 0.1589011 1.1120001
0.11015843 0.1589011 1.1120001
0.11170486 0.1583295 1.108
0.11333985 0.15790081 1.105
0.11485999 0.15732923 1.1010001
0.11679041 0.15732923 1.1010001
0.11872083 0.15732923 1.1010001
0.12021291 0.15675764 1.097
0.12213632 0.15675764 1.097
0.12372046 0.15632895 1.0940001
0.1256386 0.15632895 1.0940001
0.12755676 0.15632895 1.0940001
0.12947489 0.15632895 1.0940001
0.13139305 0.15632895 1.0940001
0.1333112 0.15632895 1.0940001
0.13522933 0.15632895 1.0940001
0.13714749 0.15632895 1.0940001
0.13817582 0.15532868 1.087
0.1404683 0.15575737 1.09
0.14198756 0.15532868 1.087
0.14296679 0.15432841 1.08
0.1448604 0.15432841 1.08
0.14634635 0.15389971 1.077
0.14768414 0.15332812 1.0730001
0.14956547 0.15332812 1.0730001
0.15144679 0.15332812 1.0730001
0.15332812 0.15332812 1.0730001
0.15520945 0.15332812 1.0730001
0.15914042 0.15532868 1.087
0.16060182 0.15489998 1.0840001
0.16085343 0.15332812 1.0730001
0.16273476 0.15332812 1.0730001
0.16415583 0.15289943 1.0700001
0.1660319 0.15289943 1.0700001
0.1674372 0.15247074 1.067
0.16867329 0.15189916 1.0630001
0.17053708 0.15189916 1.0630001
0.17191434 0.15147047 1.0600001
0.17377287 0.15147047 1.0600001
0.17612846 0.15189916 1.0630001
0.17799227 0.15189916 1.0630001
0.18053284 0.15247074 1.067
0.18240365 0.15247074 1.067
0.18479256 0.15289943 1.0700001
0.18544744 0.15189916 1.0630001
0.18731123 0.15189916 1.0630001
0.18864113 0.15147047 1.0600001
0.18996051 0.15104178 1.057
-0.18382911 0.14653045 1.013
-0.18205298 0.14653045 1.013
-0.18081075 0.1469644 1.016
-0.17902936 0.1469644 1.016
-0.17777134 0.14739835 1.0190001
-0.17494847 0.14653045 1.013
-0.17317235 0.14653045 1.013
-0.17139623 0.14653045 1.013
-0.1696201 0.14653045 1.013
-0.16784397 0.14653045 1.013
-0.16557603 0.1460965 1.01
-0.16429171 0.14653045 1.013
-0.1625156 0.14653045 1.013
-0.16073947 0.14653045 1.013
-0.15896334 0.14653045 1.013
-0.1567217 0.1460965 1.01
-0.15495083 0.1460965 1.01
-0.15272498 0.14566255 1.0070001
-0.15095937 0.14566255 1.0070001
-0.14919376 0.14566255 1.0070001
-0.14742815 0.14566255 1.0070001
-0.14653045 0.14653045 1.013
-0.14475432 0.14653045 1.013
-0.14297819 0.14653045 1.013
-0.14120206 0.14653045 1.013
-0.13983886 0.1469644 1.016
-0.13764982 0.14653045 1.013
-0.13627608 0.1469644 1.016
-0.13370043 0.1460965 1.01
-0.13192956 0.1460965 1.01
-0.13286497 0.14913414 1.031
-0.13105728 0.14913414 1.031
-0.1292496 0.14913414 1.031
-0.12744191 0.14913414 1.031
-0.12526865 0.14870019 1.028
-0.12346622 0.14870019 1.028
-0.1216638 0.14870019 1.028
-0.12021116 0.14913414 1.031
-0.11840348 0.14913414 1.031
-0.11659579 0.14913414 1.031
-0.1147881 0.14913414 1.031
-0.11298042 0.14913414 1.031
-0.11117273 0.14913414 1.031
-0.10936505 0.14913414 1.031
-0.10755736 0.14913414 1.031
-0.10513425 0.14826626 1.0250001
-0.10303463 0.1478323 1.0220001
-0.10124273 0.1478323 1.0220001
-0.10256474 0.1524611 1.054
-0.10100339 0.15289505 1.057
-0.097020701 0.1524611 1.054
-0.095443577 0.15289505 1.057
-0.093590304 0.15289505 1.057
-0.091737032 0.15289505 1.057
-0.08988376 0.15289505 1.057
-0.08803048 0.15289505 1.057
-0.087807812 0.15578805 1.077
-0.085600361 0.15520945 1.0730001
-0.083719037 0.15520945 1.0730001
-0.080388576 0.1524611 1.054
-0.081223167 0.1576685 1.09
-0.079312034 0.1576685 1.09
-0.077187866 0.15723455 1.087
-0.075489767 0.1576685 1.09
-0.07384865 0.1582471 1.0940001
-0.0716675 0.1576685 1.09
-0.069756366 0.1576685 1.09
-0.067658506 0.15723455 1.087
-0.065934099 0.1576685 1.09
-0.063846759 0.15723455 1.087
-0.062510714 0.15868105 1.097
-0.060200699 0.1576685 1.09
-0.057968706 0.1568006 1.0840001
-0.056068093 0.1568006 1.0840001
-0.054467298 0.1576685 1.09
-0.052556165 0.1576685 1.09
-0.050645035 0.1576685 1.09
-0.048912741 0.1582471 1.0940001
-0.046994593 0.1582471 1.0940001
-0.045364868 0.15925965 1.1010001
-0.043276649 0.15868105 1.097
-0.041353244 0.15868105 1.097
-0.039322007 0.1582471 1.0940001
-0.037506431 0.15868105 1.097
-0.035583023 0.15868105 1.097
-0.033659615 0.15868105 1.097
-0.03173621 0.15868105 1.097
-0.029812803 0.15868105 1.097
-0.027889397 0.15868105 1.097
-0.02596599 0.15868105 1.097
-0.024217917 0.15983824 1.105
-0.02219983 0.15925965 1.1010001
-0.020269411 0.15925965 1.1010001
-0.018405616 0.15983824 1.105
-0.016572507 0.16085079 1.1120001
-0.0146228 0.16085079 1.1120001
-0.012673093 0.16085079 1.1120001
-0.01079089 0.16186334 1.1190001
-0.0088289101 0.16186334 1.1190001
-0.0068669301 0.16186334 1.1190001
-0.0049356334 0.16287591 1.126
-0.0029613799 0.16287591 1.126
-0.00098712661 0.16287591 1.126
0.00097134669 0.1602722 1.108
0.0029140399 0.1602722 1.108
0.0048567331 0.1602722 1.108
0.0068239733 0.16085079 1.1120001
0.0087736798 0.16085079 1.1120001
0.010723387 0.16085079 1.1120001
0.012707283 0.16128474 1.115
0.01471485 0.16186334 1.1190001
0.016781153 0.16287591 1.126
0.018705437 0.16244195 1.123
0.02067443 0.16244195 1.123
0.022703914 0.16287591 1.126
0.024678167 0.16287591 1.126
0.0267471 0.1634545 1.13
0.028728366 0.1634545 1.13
0.030600926 0.16287591 1.126
0.032488391 0.16244195 1.123
0.034457382 0.16244195 1.123
0.036426377 0.16244195 1.123
0.038395371 0.16244195 1.123
0.040364362 0.16244195 1.123
0.042333357 0.16244195 1.123
0.044144548 0.16186334 1.1190001
0.046271343 0.16244195 1.123
0.048240338 0.16244195 1.123
0.050522301 0.1634545 1.13
0.052689418 0.1640331 1.1340001
0.054484833 0.1634545 1.13
0.056266218 0.16287591 1.126
0.058085304 0.16244195 1.123
0.060054295 0.16244195 1.123
0.061802369 0.16186334 1.1190001
0.063764349 0.16186334 1.1190001
0.065726332 0.16186334 1.1190001
0.067930266 0.16244195 1.123
0.069899261 0.16244195 1.123
0.071356282 0.16128474 1.115
0.073311247 0.16128474 1.115
0.075806245 0.16244195 1.123
0.077775232 0.16244195 1.123
0.079744227 0.16244195 1.123
0.080621772 0.1602722 1.108
0.082564466 0.1602722 1.108
0.08450716 0.1602722 1.108
0.086449854 0.1602722 1.108
0.088153213 0.15983824 1.105
0.090090647 0.15983824 1.105
0.092028081 0.15983824 1.105
0.094220623 0.1602722 1.108
0.096770853 0.16128474 1.115
0.098725818 0.16128474 1.115
0.1004099 0.16085079 1.1120001
0.10171525 0.15983824 1.105
0.10365269 0.15983824 1.105
0.10520789 0.15925965 1.1010001
0.10713831 0.15925965 1.1010001
0.10946498 0.15983824 1.105
0.11099915 0.15925965 1.1010001
0.11251929 0.15868105 1.097
0.11485999 0.15925965 1.1010001
0.1163661 0.15868105 1.097
0.11828951 0.15868105 1.097
0.11988416 0.1582471 1.0940001
0.12213632 0.15868105 1.097
0.12372046 0.1582471 1.0940001
0.12517923 0.1576685 1.09
0.12709036 0.1576685 1.09
0.12864645 0.15723455 1.087
0.13055232 0.15723455 1.087
0.13282377 0.1576685 1.09
0.13436407 0.15723455 1.087
0.13589385 0.1568006 1.0840001
0.13779446 0.1568006 1.0840001
0.13827752 0.15520945 1.0730001
0.14015883 0.15520945 1.0730001
0.14164303 0.1547755 1.0700001
0.1435191 0.1547755 1.0700001
0.14498751 0.15434155 1.067
0.14685832 0.15434155 1.067
0.14872913 0.15434155 1.067
0.15059994 0.15434155 1.067
0.15247074 0.15434155 1.067
0.15434155 0.15434155 1.067
0.15621236 0.15434155 1.067
0.15808316 0.15434155 1.067
0.15995397 0.15434155 1.067
0.16182478 0.15434155 1.067
0.16308191 0.15376295 1.0630001
0.16494571 0.15376295 1.0630001
0.1668095 0.15376295 1.0630001
0.16819726 0.153329 1.0600001
0.17005579 0.153329 1.0600001
0.17191434 0.153329 1.0600001
0.17377287 0.153329 1.0600001
0.1756314 0.153329 1.0600001
0.17748994 0.153329 1.0600001
0.17934847 0.153329 1.0600001
0.181207 0.153329 1.0600001
0.18358365 0.15376295 1.0630001
0.18492407 0.153329 1.0600001
0.1867826 0.153329 1.0600001
0.18810724 0.15289505 1.057
0.18942137 0.1524611 1.054
-0.18450589 0.14742815 1.0070001
-0.18274029 0.14742815 1.0070001
-0.18097468 0.14742815 1.0070001
-0.17974296 0.14786737 1.01
-0.17797209 0.14786737 1.01
-0.17620124 0.14786737 1.01
-0.17443037 0.14786737 1.01
-0.17214665 0.14742815 1.0070001
-0.17038104 0.14742815 1.0070001
-0.16811311 0.14698894 1.0040001
-0.16684982 0.14742815 1.0070001
-0.16459242 0.14698894 1.0040001
-0.16283207 0.14698894 1.0040001
-0.16155301 0.14742815 1.0070001
-0.15931137 0.14698894 1.0040001
-0.15755102 0.14698894 1.0040001
-0.15579067 0.14698894 1.0040001
-0.15357009 0.14654973 1.001
-0.151815 0.14654973 1.001
-0.15005991 0.14654973 1.001
-0.14830482 0.14654973 1.001
-0.14654973 0.14654973 1.001
-0.14479464 0.14654973 1.001
-0.14346825 0.14698894 1.0040001
-0.14213133 0.14742815 1.0070001
-0.14036573 0.14742815 1.0070001
-0.13901304 0.14786737 1.01
-0.13683452 0.14742815 1.0070001
-0.1354713 0.14786737 1.01
-0.1333033 0.14742815 1.0070001
-0.13153769 0.14742815 1.0070001
-0.12899888 0.14654973 1.001
-0.12915054 0.14874579 1.016
-0.12774524 0.149185 1.0190001
-0.12670025 0.15006341 1.0250001
-0.12490308 0.15006341 1.0250001
-0.12310591 0.15006341 1.0250001
-0.12130875 0.15006341 1.0250001
-0.11951158 0.15006341 1.0250001
-0.11805894 0.15050262 1.028
-0.11625652 0.15050262 1.028
-0.11445409 0.15050262 1.028
-0.11265167 0.15050262 1.028
-0.11052575 0.15006341 1.0250001
-0.10904681 0.15050262 1.028
-0.10661845 0.1496242 1.0220001
-0.10482654 0.1496242 1.0220001
-0.10303463 0.1496242 1.0220001
-0.10124273 0.1496242 1.0220001
-0.099450819 0.1496242 1.0220001
-0.097945586 0.15006341 1.0250001
-0.098212086 0.1532843 1.0470001
-0.096376352 0.1532843 1.0470001
-0.094811499 0.15372349 1.0500001
-0.09270487 0.1532843 1.0470001
-0.091129497 0.15372349 1.0500001
-0.089288503 0.15372349 1.0500001
-0.087447502 0.15372349 1.0500001
-0.08593262 0.15430911 1.054
-0.084084608 0.15430911 1.054
-0.081924498 0.15372349 1.0500001
-0.080388576 0.15430911 1.054
-0.078540564 0.15430911 1.054
-0.076401502 0.15372349 1.0500001
-0.075489767 0.15957963 1.09
-0.0716675 0.15957963 1.09
-0.069756366 0.15957963 1.09
-0.067658506 0.15914042 1.087
-0.065752633 0.15914042 1.087
-0.063670546 0.15870121 1.0840001
-0.061940882 0.15914042 1.087
-0.059869319 0.15870121 1.0840001
-0.0577548 0.1581156 1.08
-0.055861201 0.1581156 1.08
-0.053817689 0.15767638 1.077
-0.051929351 0.15767638 1.077
-0.050645035 0.15957963 1.09
-0.048733901 0.15957963 1.09
-0.046693895 0.15914042 1.087
-0.044911634 0.15957963 1.09
-0.043000501 0.15957963 1.09
-0.041089367 0.15957963 1.09
-0.039178234 0.15957963 1.09
-0.0372671 0.15957963 1.09
-0.035355967 0.15957963 1.09
-0.033567566 0.16016525 1.0940001
-0.031649418 0.16016525 1.0940001
-0.029731274 0.16016525 1.0940001
-0.027813127 0.16016525 1.0940001
-0.025894979 0.16016525 1.0940001
-0.023976833 0.16016525 1.0940001
-0.022058686 0.16016525 1.0940001
-0.020195769 0.16060446 1.097
-0.018222393 0.16016525 1.0940001
-0.016348956 0.16060446 1.097
-0.01447815 0.16119006 1.1010001
-0.012502143 0.16060446 1.097
-0.010549807 0.16016525 1.0940001
-0.0086868899 0.16119006 1.1010001
-0.0067135133 0.16016525 1.0940001
-0.0047778334 0.15957963 1.09
-0.0028588099 0.15914042 1.087
-0.00095293665 0.15914042 1.087
0.00095556665 0.15957963 1.09
0.00288511 0.16060446 1.097
0.0048260498 0.16119006 1.1010001
0.0067564701 0.16119006 1.1010001
0.0087184496 0.16177568 1.105
0.010655884 0.16177568 1.105
0.012627507 0.16221489 1.108
0.0145702 0.16221489 1.108
0.016617216 0.16323972 1.115
0.01863881 0.16382533 1.1190001
0.02060079 0.16382533 1.1190001
0.022643423 0.16441095 1.123
0.024612416 0.16441095 1.123
0.0267471 0.16543576 1.13
0.028626673 0.16485015 1.126
0.030519396 0.16441095 1.123
0.032372668 0.16382533 1.1190001
0.034334648 0.16382533 1.1190001
0.036296628 0.16382533 1.1190001
0.037882518 0.16221489 1.108
0.039825212 0.16221489 1.108
0.041767906 0.16221489 1.108
0.043710601 0.16221489 1.108
0.046106528 0.16382533 1.1190001
0.048068509 0.16382533 1.1190001
0.050030489 0.16382533 1.1190001
0.052178323 0.16441095 1.123
0.054147318 0.16441095 1.123
0.056116309 0.16441095 1.123
0.057878409 0.16382533 1.1190001
0.059840389 0.16382533 1.1190001
0.061415758 0.16280051 1.1120001
0.063365467 0.16280051 1.1120001
0.065726332 0.16382533 1.1190001
0.067930266 0.16441095 1.123
0.069899261 0.16441095 1.123
0.071356282 0.16323972 1.115
0.073311247 0.16323972 1.115
0.075806245 0.16441095 1.123
0.077775232 0.16441095 1.123
0.079460189 0.16382533 1.1190001
0.081422172 0.16382533 1.1190001
0.082564466 0.16221489 1.108
0.084278353 0.16177568 1.105
0.088153213 0.16177568 1.105
0.090090647 0.16177568 1.105
0.091361813 0.16060446 1.097
0.093285225 0.16060446 1.097
0.094948262 0.16016525 1.0940001
0.096866407 0.16016525 1.0940001
0.099055439 0.16060446 1.097
0.10097885 0.16060446 1.097
0.10290226 0.16060446 1.097
0.10482566 0.16060446 1.097
0.10674907 0.16060446 1.097
0.10867248 0.16060446 1.097
0.11099915 0.16119006 1.1010001
0.11221158 0.16016525 1.0940001
0.1144427 0.16060446 1.097
0.11562356 0.15957963 1.09
0.1175347 0.15957963 1.09
0.11944583 0.15957963 1.09
0.11913023 0.15665157 1.0700001
0.1210063 0.15665157 1.0700001
0.12288237 0.15665157 1.0700001
0.12639078 0.15870121 1.0840001
0.127818 0.1581156 1.08
0.1297116 0.1581156 1.08
0.13209262 0.15870121 1.0840001
0.13399324 0.15870121 1.0840001
0.1353924 0.1581156 1.08
0.13728599 0.1581156 1.08
0.13789091 0.15665157 1.0700001
0.13937509 0.15621236 1.067
0.14031927 0.15518753 1.0600001
0.1425802 0.15562674 1.0630001
0.14444399 0.15562674 1.0630001
0.14630778 0.15562674 1.0630001
0.1477534 0.15518753 1.0600001
0.15003537 0.15562674 1.0630001
0.15189916 0.15562674 1.0630001
0.15289505 0.15474832 1.057
0.15474832 0.15474832 1.057
0.15660159 0.15474832 1.057
0.15845487 0.15474832 1.057
0.16030814 0.15474832 1.057
0.16262166 0.15518753 1.0600001
0.16401468 0.15474832 1.057
0.16586797 0.15474832 1.057
0.16772124 0.15474832 1.057
0.16957451 0.15474832 1.057
0.17142779 0.15474832 1.057
0.17328106 0.15474832 1.057
0.17513433 0.15474832 1.057
0.1769876 0.15474832 1.057
0.17884088 0.15474832 1.057
0.18069415 0.15474832 1.057
0.18254742 0.15474832 1.057
0.18387732 0.15430911 1.054
0.18572535 0.15430911 1.054
0.18757336 0.15430911 1.054
0.18870249 0.15372349 1.0500001
0.1905435 0.15372349 1.0500001
-0.18980272 0.14919376 1.0070001
-0.18747692 0.14874929 1.0040001
-0.1862715 0.14919376 1.0070001
-0.18450589 0.14919376 1.0070001
-0.18219587 0.14874929 1.0040001
-0.18043554 0.14874929 1.0040001
-0.17867519 0.14874929 1.0040001
-0.17744347 0.14919376 1.0070001
-0.17567787 0.14919376 1.0070001
-0.17339414 0.14874929 1.0040001
-0.17163379 0.14874929 1.0040001
-0.16936587 0.14830482 1.001
-0.16761078 0.14830482 1.001
-0.16635276 0.14874929 1.0040001
-0.1641006 0.14830482 1.001
-0.16234551 0.14830482 1.001
-0.16059043 0.14830482 1.001
-0.15883534 0.14830482 1.001
-0.15708026 0.14830482 1.001
-0.15485966 0.14786035 0.99800003
-0.15310983 0.14786035 0.99800003
-0.15136001 0.14786035 0.99800003
-0.14961018 0.14786035 0.99800003
-0.14786035 0.14786035 0.99800003
-0.14611052 0.14786035 0.99800003
-0.14436071 0.14786035 0.99800003
-0.14261088 0.14786035 0.99800003
-0.14128448 0.14830482 1.001
-0.13994756 0.14874929 1.0040001
-0.13818721 0.14874929 1.0040001
-0.13642687 0.14874929 1.0040001
-0.13426413 0.14830482 1.001
-0.13250904 0.14830482 1.001
-0.13075395 0.14830482 1.001
-0.12861226 0.14786035 0.99800003
-0.12686244 0.14786035 0.99800003
-0.12511261 0.14786035 0.99800003
-0.12336278 0.14786035 0.99800003
-0.12417194 0.15097164 1.0190001
-0.1227456 0.15141611 1.0220001
-0.1209537 0.15141611 1.0220001
-0.11916179 0.15141611 1.0220001
-0.11736988 0.15141611 1.0220001
-0.11591725 0.15186058 1.0250001
-0.11412008 0.15186058 1.0250001
-0.11199417 0.15141611 1.0220001
-0.11020226 0.15141611 1.0220001
-0.10841035 0.15141611 1.0220001
-0.10661845 0.15141611 1.0220001
-0.10482654 0.15141611 1.0220001
-0.10273218 0.15097164 1.0190001
-0.10094553 0.15097164 1.0190001
-0.099450819 0.15141611 1.0220001
-0.09765891 0.15141611 1.0220001
-0.098212086 0.15512003 1.0470001
-0.096100196 0.15467556 1.044
-0.094540611 0.15512003 1.0470001
-0.09270487 0.15512003 1.0470001
-0.090869129 0.15512003 1.0470001
-0.089288503 0.1555645 1.0500001
-0.087447502 0.1555645 1.0500001
-0.085606501 0.1555645 1.0500001
-0.083765499 0.1555645 1.0500001
-0.081924498 0.1555645 1.0500001
-0.080083497 0.1555645 1.0500001
-0.078242503 0.1555645 1.0500001
-0.076401502 0.1555645 1.0500001
-0.073578633 0.16149077 1.09
-0.0716675 0.16149077 1.09
-0.069756366 0.16149077 1.09
-0.067658506 0.1610463 1.087
-0.065752633 0.1610463 1.087
-0.062672026 0.15808316 1.067
-0.060801215 0.15808316 1.067
-0.059261791 0.1589721 1.0730001
-0.057380464 0.1589721 1.0730001
-0.055499136 0.1589721 1.0730001
-0.053817689 0.15956473 1.077
-0.051929351 0.15956473 1.077
-0.050041009 0.15956473 1.077
-0.047526728 0.15749054 1.0630001
-0.045662936 0.15749054 1.0630001
-0.044788022 0.1610463 1.087
-0.042882148 0.1610463 1.087
-0.040976275 0.1610463 1.087
-0.039070401 0.1610463 1.087
-0.037164528 0.1610463 1.087
-0.035355967 0.16149077 1.09
-0.033567566 0.16208339 1.0940001
-0.031649418 0.16208339 1.0940001
-0.029622566 0.16149077 1.09
-0.027711432 0.16149077 1.09
-0.025800301 0.16149077 1.09
-0.023889167 0.16149077 1.09
-0.021978034 0.16149077 1.09
-0.0200669 0.16149077 1.09
-0.018155767 0.16149077 1.09
-0.016244633 0.16149077 1.09
-0.0143335 0.16149077 1.09
-0.012388176 0.1610463 1.087
-0.010482303 0.1610463 1.087
-0.0086000999 0.16149077 1.09
-0.0066705565 0.1610463 1.087
-0.0047515333 0.16060182 1.0840001
-0.00285092 0.16060182 1.0840001
-0.00095293665 0.1610463 1.087
0.00288511 0.16252786 1.097
0.0047953664 0.16208339 1.0940001
0.0067135133 0.16208339 1.0940001
0.0086553302 0.16252786 1.097
0.01061731 0.16312049 1.1010001
0.01254773 0.16312049 1.1010001
0.01447815 0.16312049 1.1010001
0.01640857 0.16312049 1.1010001
0.018405616 0.16371311 1.105
0.02034305 0.16371311 1.105
0.022119176 0.16252786 1.097
0.024042584 0.16252786 1.097
0.025800301 0.16149077 1.09
0.027558893 0.16060182 1.0840001
0.029459506 0.16060182 1.0840001
0.031649418 0.16208339 1.0940001
0.033567566 0.16208339 1.0940001
0.035355967 0.16149077 1.09
0.037506431 0.16252786 1.097
0.039429836 0.16252786 1.097
0.041504029 0.16312049 1.1010001
0.043434449 0.16312049 1.1010001
0.045364868 0.16312049 1.1010001
0.047295291 0.16312049 1.1010001
0.051929351 0.15956473 1.077
0.053817689 0.15956473 1.077
0.056585327 0.16208339 1.0940001
0.058503471 0.16208339 1.0940001
0.06042162 0.16208339 1.0940001
0.062111832 0.16149077 1.09
0.065491386 0.16519468 1.115
0.067446351 0.16519468 1.115
0.069401316 0.16519468 1.115
0.069372386 0.16060182 1.0840001
0.071272999 0.16060182 1.0840001
0.073173612 0.16060182 1.0840001
0.074104629 0.15852763 1.0700001
0.090778835 0.16149077 1.09
0.092689969 0.16149077 1.09
0.094340727 0.1610463 1.087
0.0962466 0.1610463 1.087
0.098152474 0.1610463 1.087
0.1003345 0.16149077 1.09
0.10224564 0.16149077 1.09
0.10415676 0.16149077 1.09
0.10645714 0.16208339 1.0940001
0.10867248 0.16252786 1.097
0.11059588 0.16252786 1.097
0.11221158 0.16208339 1.0940001
0.11412973 0.16208339 1.0940001
0.11604787 0.16208339 1.0940001
0.11397631 0.15660159 1.057
0.11582958 0.15660159 1.057
0.11879622 0.15808316 1.067
0.12066703 0.15808316 1.067
0.12253784 0.15808316 1.067
0.12359247 0.15704606 1.0600001
0.12746295 0.15956473 1.077
0.12935129 0.15956473 1.077
0.13123962 0.15956473 1.077
0.1334988 0.16000921 1.08
0.1353924 0.16000921 1.08
0.13728599 0.16000921 1.08
0.13789091 0.15852763 1.0700001
0.13846073 0.15704606 1.0600001
0.13992214 0.15660159 1.057
0.14137302 0.15615712 1.054
0.14322104 0.15615712 1.054
0.14548196 0.15660159 1.057
0.14733523 0.15660159 1.057
0.1491885 0.15660159 1.057
0.15104178 0.15660159 1.057
0.1524611 0.15615712 1.054
0.15372349 0.1555645 1.0500001
0.1555645 0.1555645 1.0500001
0.15800513 0.15615712 1.054
0.15879151 0.15512003 1.0470001
0.16170117 0.15615712 1.054
0.16292849 0.1555645 1.0500001
0.1647695 0.1555645 1.0500001
0.16724521 0.15615712 1.054
0.16909322 0.15615712 1.054
0.17094123 0.15615712 1.054
0.17278925 0.15615712 1.054
0.17463726 0.15615712 1.054
0.17648527 0.15615712 1.054
0.17833328 0.15615712 1.054
0.1794975 0.1555645 1.0500001
0.1813385 0.1555645 1.0500001
0.1831795 0.1555645 1.0500001
0.18502049 0.1555645 1.0500001
0.1868615 0.1555645 1.0500001
0.1876242 0.15467556 1.044
0.18891028 0.15423109 1.041
-0.19213903 0.1514091 1.01
-0.18980272 0.15095937 1.0070001
-0.18747692 0.15050964 1.0040001
-0.18571657 0.15050964 1.0040001
-0.18395622 0.15050964 1.0040001
-0.18219587 0.15050964 1.0040001
-0.17989638 0.15005991 1.001
-0.1781413 0.15005991 1.001
-0.17638621 0.15005991 1.001
-0.17463112 0.15005991 1.001
-0.17287603 0.15005991 1.001
-0.17112094 0.15005991 1.001
-0.16885827 0.14961018 0.99800003
-0.16710845 0.14961018 0.99800003
-0.16535862 0.14961018 0.99800003
-0.16360879 0.14961018 0.99800003
-0.16185896 0.14961018 0.99800003
-0.15962785 0.14916044 0.99500006
-0.15788329 0.14916044 0.99500006
-0.15660949 0.14961018 0.99800003
-0.15439415 0.14916044 0.99500006
-0.15310983 0.14961018 0.99800003
-0.15090501 0.14916044 0.99500006
-0.14916044 0.14916044 0.99500006
-0.14786035 0.14961018 0.99800003
-0.14611052 0.14961018 0.99800003
-0.14436071 0.14961018 0.99800003
-0.14218219 0.14916044 0.99500006
-0.14086105 0.14961018 0.99800003
-0.13911122 0.14961018 0.99800003
-0.13736139 0.14961018 0.99800003
-0.13561156 0.14961018 0.99800003
-0.13386174 0.14961018 0.99800003
-0.13250904 0.15005991 1.001
-0.13036208 0.14961018 0.99800003
-0.12861226 0.14961018 0.99800003
-0.12724379 0.15005991 1.001
-0.1254887 0.15005991 1.001
-0.12373361 0.15005991 1.001
-0.12197852 0.15005991 1.001
-0.12202498 0.15230855 1.016
-0.1202436 0.15230855 1.016
-0.11846221 0.15230855 1.016
-0.11702535 0.15275829 1.0190001
-0.11523871 0.15275829 1.0190001
-0.11345206 0.15275829 1.0190001
-0.11166541 0.15275829 1.0190001
-0.10955528 0.15230855 1.016
-0.10745566 0.15185884 1.013
-0.1059925 0.15230855 1.016
-0.10421112 0.15230855 1.016
-0.10242973 0.15230855 1.016
-0.10094553 0.15275829 1.0190001
-0.099158891 0.15275829 1.0190001
-0.097372241 0.15275829 1.0190001
-0.097649269 0.15605631 1.041
-0.094351247 0.15365775 1.0250001
-0.093727939 0.15560658 1.0380001
-0.092173606 0.15605631 1.041
-0.090608761 0.15650603 1.044
-0.08877828 0.15650603 1.044
-0.086947799 0.15650603 1.044
-0.085117318 0.15650603 1.044
-0.083286837 0.15650603 1.044
-0.081456363 0.15650603 1.044
-0.07985469 0.15695576 1.0470001
-0.078018948 0.15695576 1.0470001
-0.076183207 0.15695576 1.0470001
-0.074134439 0.15650603 1.044
-0.072303958 0.15650603 1.044
-0.068248503 0.15560658 1.0380001
-0.066812523 0.15650603 1.044
-0.065977931 0.1589046 1.0600001
-0.064119399 0.1589046 1.0600001
-0.062260866 0.1589046 1.0600001
-0.060402334 0.1589046 1.0600001
-0.058543801 0.1589046 1.0600001
-0.05599007 0.15695576 1.0470001
-0.054154329 0.15695576 1.0470001
-0.052468501 0.1574055 1.0500001
-0.0506275 0.1574055 1.0500001
-0.047526728 0.15935433 1.0630001
-0.045662936 0.15935433 1.0630001
-0.043799143 0.15935433 1.0630001
-0.041935351 0.15935433 1.0630001
-0.040599309 0.16145307 1.077
-0.03871097 0.16145307 1.077
-0.036822628 0.16145307 1.077
-0.035031598 0.1619028 1.08
-0.033137999 0.1619028 1.08
-0.03136012 0.16250244 1.0840001
-0.0293508 0.1619028 1.08
-0.0274572 0.1619028 1.08
-0.0255636 0.1619028 1.08
-0.023757666 0.16250244 1.0840001
-0.021857053 0.16250244 1.0840001
-0.0198828 0.1619028 1.08
-0.018105797 0.16295217 1.087
-0.016199924 0.16295217 1.087
-0.01429405 0.16295217 1.087
-0.012388176 0.16295217 1.087
-0.010453373 0.16250244 1.0840001
-0.0085527599 0.16250244 1.0840001
-0.0066521466 0.16250244 1.0840001
-0.0047340002 0.1619028 1.08
-0.0028404 0.1619028 1.08
-0.00094679999 0.1619028 1.08
0.0028667001 0.1634019 1.09
0.0047646831 0.16295217 1.087
0.0066889664 0.1634019 1.09
0.0086553302 0.16445127 1.097
0.010578737 0.16445127 1.097
0.012502143 0.16445127 1.097
0.01442555 0.16445127 1.097
0.016304247 0.16400154 1.0940001
0.018155767 0.1634019 1.09
0.02034305 0.16565055 1.105
0.022119176 0.16445127 1.097
0.023889167 0.1634019 1.09
0.025800301 0.1634019 1.09
0.027558893 0.16250244 1.0840001
0.029459506 0.16250244 1.0840001
0.031649418 0.16400154 1.0940001
0.033567566 0.16400154 1.0940001
0.035355967 0.1634019 1.09
0.0372671 0.1634019 1.09
0.039322007 0.16400154 1.0940001
0.041089367 0.1634019 1.09
0.043000501 0.1634019 1.09
0.044911634 0.1634019 1.09
0.046264328 0.16145307 1.077
0.04815267 0.16145307 1.077
0.050041009 0.16145307 1.077
0.051929351 0.16145307 1.077
0.053817689 0.16145307 1.077
0.055499136 0.16085343 1.0730001
0.058289565 0.1634019 1.09
0.060200699 0.1634019 1.09
0.061940882 0.16295217 1.087
0.063846759 0.16295217 1.087
0.064724296 0.1604037 1.0700001
0.066413634 0.15995397 1.067
0.069372386 0.16250244 1.0840001
0.071272999 0.16250244 1.0840001
0.073173612 0.16250244 1.0840001
0.074104629 0.1604037 1.0700001
0.075980701 0.1604037 1.0700001
0.077638477 0.15995397 1.067
0.088378519 0.16250244 1.0840001
0.090279132 0.16250244 1.0840001
0.092179745 0.16250244 1.0840001
0.093733199 0.1619028 1.08
0.095361166 0.16145307 1.077
0.097520396 0.1619028 1.08
0.10005835 0.16295217 1.087
0.10196422 0.16295217 1.087
0.10387009 0.16295217 1.087
0.10548404 0.16250244 1.0840001
0.10738465 0.16250244 1.0840001
0.10928527 0.16250244 1.0840001
0.11118588 0.16250244 1.0840001
0.11026976 0.15845487 1.057
0.11212303 0.15845487 1.057
0.11397631 0.15845487 1.057
0.11582958 0.15845487 1.057
0.11768286 0.15845487 1.057
0.11953613 0.15845487 1.057
0.12173393 0.1589046 1.0600001
0.12359247 0.1589046 1.0600001
0.12746295 0.16145307 1.077
0.12935129 0.16145307 1.077
0.13123962 0.16145307 1.077
0.1334988 0.1619028 1.08
0.1353924 0.1619028 1.08
0.13690464 0.16145307 1.077
0.13879299 0.16145307 1.077
0.137677 0.15800513 1.054
0.13952501 0.15800513 1.054
0.14083649 0.1574055 1.0500001
0.1418622 0.15650603 1.044
0.14548196 0.15845487 1.057
0.14733523 0.15845487 1.057
0.1491885 0.15845487 1.057
0.15061308 0.15800513 1.054
0.1518825 0.1574055 1.0500001
0.15284508 0.15650603 1.044
0.15423109 0.15605631 1.041
0.15605631 0.15605631 1.041
0.15788153 0.15605631 1.041
0.15863283 0.15500695 1.034
0.15998027 0.15455721 1.031
0.16178796 0.15455721 1.031
0.16359565 0.15455721 1.031
0.16540334 0.15455721 1.031
0.16721101 0.15455721 1.031
0.1690187 0.15455721 1.031
0.17082639 0.15455721 1.031
0.17380618 0.15560658 1.0380001
0.17562614 0.15560658 1.0380001
0.1774461 0.15560658 1.0380001
0.17443037 0.1514091 1.01
0.17777134 0.15275829 1.0190001
0.18167251 0.15455721 1.031
0.18348019 0.15455721 1.031
0.18528788 0.15455721 1.031
0.18655115 0.15410748 1.028
-0.19156832 0.15272498 1.0070001
-0.18923727 0.15226999 1.0040001
-0.18747692 0.15226999 1.0040001
-0.18571657 0.15226999 1.0040001
-0.18340656 0.151815 1.001
-0.18165147 0.151815 1.001
-0.17935723 0.15136001 0.99800003
-0.1776074 0.15136001 0.99800003
-0.17585757 0.15136001 0.99800003
-0.17410775 0.15136001 0.99800003
-0.17235793 0.15136001 0.99800003
-0.17009525 0.15090501 0.99500006
-0.16835068 0.15090501 0.99500006
-0.16660611 0.15090501 0.99500006
-0.16486154 0.15090501 0.99500006
-0.16311698 0.15090501 0.99500006
-0.16137241 0.15090501 0.99500006
-0.15914656 0.15045002 0.99200004
-0.15740725 0.15045002 0.99200004
-0.15613872 0.15090501 0.99500006
-0.15392864 0.15045002 0.99200004
-0.15264958 0.15090501 0.99500006
-0.15090501 0.15090501 0.99500006
-0.14916044 0.15090501 0.99500006
-0.14741588 0.15090501 0.99500006
-0.14567132 0.15090501 0.99500006
-0.14392675 0.15090501 0.99500006
-0.14175349 0.15045002 0.99200004
-0.14043762 0.15090501 0.99500006
-0.13869305 0.15090501 0.99500006
-0.13694848 0.15090501 0.99500006
-0.13520391 0.15090501 0.99500006
-0.13345934 0.15090501 0.99500006
-0.13211191 0.15136001 0.99800003
-0.13036208 0.15136001 0.99800003
-0.12861226 0.15136001 0.99800003
-0.12724379 0.151815 1.001
-0.1254887 0.151815 1.001
-0.12373361 0.151815 1.001
-0.12197852 0.151815 1.001
-0.12058374 0.15226999 1.0040001
-0.1188234 0.15226999 1.0040001
-0.11706305 0.15226999 1.0040001
-0.11668082 0.15408994 1.016
-0.11456017 0.15363495 1.013
-0.11311805 0.15408994 1.016
-0.11133666 0.15408994 1.016
-0.10923179 0.15363495 1.013
-0.10713743 0.15317996 1.01
-0.10567953 0.15363495 1.013
-0.10390341 0.15363495 1.013
-0.10212728 0.15363495 1.013
-0.10035115 0.15363495 1.013
-0.098866962 0.15408994 1.016
-0.097085573 0.15408994 1.016
-0.0955856 0.15454493 1.0190001
-0.094075099 0.15499993 1.0220001
-0.092824973 0.15590991 1.028
-0.091553807 0.15681988 1.034
-0.090088017 0.15742654 1.0380001
-0.088268057 0.15742654 1.0380001
-0.086697951 0.15788153 1.041
-0.08487273 0.15788153 1.041
-0.083047509 0.15788153 1.041
-0.081222288 0.15788153 1.041
-0.079397067 0.15788153 1.041
-0.077795401 0.15833652 1.044
-0.075746633 0.15788153 1.041
-0.074134439 0.15833652 1.044
-0.072303958 0.15833652 1.044
-0.070068456 0.15742654 1.0380001
-0.066812523 0.15833652 1.044
-0.064982042 0.15833652 1.044
-0.063756458 0.15985315 1.054
-0.061908446 0.15985315 1.054
-0.060060434 0.15985315 1.054
-0.057825811 0.15879151 1.0470001
-0.05599007 0.15879151 1.0470001
-0.054154329 0.15879151 1.0470001
-0.052468501 0.1592465 1.0500001
-0.0506275 0.1592465 1.0500001
-0.048972353 0.15985315 1.054
-0.047526728 0.16121812 1.0630001
-0.045662936 0.16121812 1.0630001
-0.043799143 0.16121812 1.0630001
-0.041935351 0.16121812 1.0630001
-0.040222343 0.16182478 1.067
-0.038207762 0.16121812 1.0630001
-0.036480729 0.16182478 1.067
-0.034804542 0.16273476 1.0730001
-0.032923218 0.16273476 1.0730001
-0.031157609 0.1633414 1.077
-0.029160563 0.16273476 1.0730001
-0.02738093 0.1633414 1.077
-0.02549259 0.1633414 1.077
-0.02360425 0.1633414 1.077
-0.021776401 0.1637964 1.08
-0.019827571 0.1633414 1.077
-0.01793923 0.1633414 1.077
-0.016095599 0.1637964 1.08
-0.0142546 0.16440305 1.0840001
-0.0123084 0.1637964 1.08
-0.0104148 0.1637964 1.08
-0.0085212002 0.1637964 1.08
-0.0066276002 0.1637964 1.08
-0.0047340002 0.1637964 1.08
-0.00283251 0.1633414 1.077
-0.00094416999 0.1633414 1.077
0.00094416999 0.1633414 1.077
0.00285092 0.16440305 1.0840001
0.0047515333 0.16440305 1.0840001
0.0066276002 0.1637964 1.08
0.0085764304 0.16485804 1.087
0.010549807 0.16591969 1.0940001
0.012467953 0.16591969 1.0940001
0.0143335 0.16531304 1.09
0.016155213 0.16440305 1.0840001
0.018055826 0.16440305 1.0840001
0.020011669 0.16485804 1.087
0.021978034 0.16531304 1.09
0.023823416 0.16485804 1.087
0.025729289 0.16485804 1.087
0.027558893 0.16440305 1.0840001
0.029459506 0.16440305 1.0840001
0.03136012 0.16440305 1.0840001
0.033352785 0.16485804 1.087
0.035258658 0.16485804 1.087
0.03706196 0.16440305 1.0840001
0.039070401 0.16485804 1.087
0.040712401 0.1637964 1.08
0.042487651 0.1633414 1.077
0.04437599 0.1633414 1.077
0.046264328 0.1633414 1.077
0.04815267 0.1633414 1.077
0.050041009 0.1633414 1.077
0.051929351 0.1633414 1.077
0.053817689 0.1633414 1.077
0.055499136 0.16273476 1.0730001
0.05759437 0.1633414 1.077
0.059648398 0.1637964 1.08
0.061143115 0.16273476 1.0730001
0.062848233 0.16227977 1.0700001
0.066413634 0.16182478 1.067
0.068284445 0.16182478 1.067
0.070352502 0.16227977 1.0700001
0.072228566 0.16227977 1.0700001
0.074104629 0.16227977 1.0700001
0.075980701 0.16227977 1.0700001
0.077638477 0.16182478 1.067
0.089113168 0.16227977 1.0700001
0.090989232 0.16227977 1.0700001
0.092865296 0.16227977 1.0700001
0.094741367 0.16227977 1.0700001
0.09661743 0.16227977 1.0700001
0.098493502 0.16227977 1.0700001
0.10168281 0.16440305 1.0840001
0.10358343 0.16440305 1.0840001
0.10548404 0.16440305 1.0840001
0.11212303 0.16030814 1.057
0.11397631 0.16030814 1.057
0.11550083 0.15985315 1.054
0.11734884 0.15985315 1.054
0.11919686 0.15985315 1.054
0.12104487 0.15985315 1.054
0.12324268 0.16030814 1.057
0.1247409 0.15985315 1.054
0.12658891 0.15985315 1.054
0.12843692 0.15985315 1.054
0.13065577 0.16030814 1.057
0.12962569 0.15681988 1.034
0.13143863 0.15681988 1.034
0.13325158 0.15681988 1.034
0.13558702 0.15742654 1.0380001
0.13820124 0.15833652 1.044
0.14003173 0.15833652 1.044
0.14145455 0.15788153 1.041
0.14327978 0.15788153 1.041
0.14552316 0.15833652 1.044
0.14777707 0.15879151 1.0470001
0.14961281 0.15879151 1.0470001
0.15058064 0.15788153 1.041
0.15196666 0.15742654 1.0380001
0.153194 0.15681988 1.034
0.15455721 0.1563649 1.031
0.15681988 0.15681988 1.034
0.15817258 0.1563649 1.031
0.15951476 0.15590991 1.028
0.16084641 0.15545492 1.0250001
0.16264358 0.15545492 1.0250001
0.16444075 0.15545492 1.0250001
0.16575137 0.15499993 1.0220001
0.16754328 0.15499993 1.0220001
0.16883811 0.15454493 1.0190001
0.17112708 0.15499993 1.0220001
0.17291899 0.15499993 1.0220001
0.1726595 0.15317996 1.01
0.17443037 0.15317996 1.01
0.17777134 0.15454493 1.0190001
0.17955799 0.15454493 1.0190001
0.18187852 0.15499993 1.0220001
0.18313128 0.15454493 1.0190001
0.18437351 0.15408994 1.016
-0.19333392 0.15449058 1.0070001
-0.19099762 0.15403034 1.0040001
-0.18923727 0.15403034 1.0040001
-0.18691672 0.15357009 1.001
-0.18516164 0.15357009 1.001
-0.18285689 0.15310983 0.99800003
-0.18110706 0.15310983 0.99800003
-0.17881808 0.15264958 0.99500006
-0.17653963 0.15218933 0.99200004
-0.17480032 0.15218933 0.99200004
-0.17306101 0.15218933 0.99200004
-0.1713217 0.15218933 0.99200004
-0.1695824 0.15218933 0.99200004
-0.16784309 0.15218933 0.99200004
-0.16610378 0.15218933 0.99200004
-0.16436447 0.15218933 0.99200004
-0.16262518 0.15218933 0.99200004
-0.16088587 0.15218933 0.99200004
-0.15866527 0.15172908 0.98900002
-0.15693122 0.15172908 0.98900002
-0.15566795 0.15218933 0.99200004
-0.15346313 0.15172908 0.98900002
-0.15218933 0.15218933 0.99200004
-0.15045002 0.15218933 0.99200004
-0.14871071 0.15218933 0.99200004
-0.14697142 0.15218933 0.99200004
-0.14523211 0.15218933 0.99200004
-0.1434928 0.15218933 0.99200004
-0.1413248 0.15172908 0.98900002
-0.14001419 0.15218933 0.99200004
-0.13827488 0.15218933 0.99200004
-0.13653557 0.15218933 0.99200004
-0.13479626 0.15218933 0.99200004
-0.13305695 0.15218933 0.99200004
-0.13171478 0.15264958 0.99500006
-0.12997022 0.15264958 0.99500006
-0.12822565 0.15264958 0.99500006
-0.12686244 0.15310983 0.99800003
-0.12511261 0.15310983 0.99800003
-0.12336278 0.15310983 0.99800003
-0.12161295 0.15310983 0.99800003
-0.12022343 0.15357009 1.001
-0.1181133 0.15310983 0.99800003
-0.11671326 0.15357009 1.001
-0.11564723 0.15449058 1.0070001
-0.11388163 0.15449058 1.0070001
-0.11245003 0.15495083 1.01
-0.11100791 0.15541108 1.013
-0.1089083 0.15495083 1.01
-0.10713743 0.15495083 1.01
-0.10567953 0.15541108 1.013
-0.10390341 0.15541108 1.013
-0.10212728 0.15541108 1.013
-0.10035115 0.15541108 1.013
-0.098866962 0.15587133 1.016
-0.097085573 0.15587133 1.016
-0.095304184 0.15587133 1.016
-0.09379895 0.15633158 1.0190001
-0.092283189 0.15679184 1.0220001
-0.090756916 0.15725209 1.0250001
-0.089480489 0.15817258 1.031
-0.087927915 0.15863283 1.034
-0.086114965 0.15863283 1.034
-0.084628142 0.1592465 1.0380001
