# .PCD v0.7 - Point Cloud Data file format
VERSION 0.7
FIELDS x y z
SIZE 4 4 4
TYPE F F F
COUNT 1 1 1
WIDTH 1584
HEIGHT 1
VIEWPOINT 0 0 0 1 0 0 0
POINTS 1584
DATA ascii
0.12639078 0.21952084 1.0840001
0.1282914 0.21952084 1.0840001
0.13019201 0.21952084 1.0840001
0.1324582 0.22012837 1.087
0.13522933 0.22154593 1.0940001
0.13714749 0.22154593 1.0940001
0.13906564 0.22154593 1.0940001
0.14098378 0.22154593 1.0940001
0.1432938 0.22215347 1.097
0.1452172 0.22215347 1.097
0.14714061 0.22215347 1.097
0.14865637 0.22154593 1.0940001
0.15057451 0.22154593 1.0940001
0.15249266 0.22154593 1.0940001
0.15441081 0.22154593 1.0940001
0.15575737 0.22073589 1.09
0.1576685 0.22073589 1.09
0.15957963 0.22073589 1.09
0.16741703 0.2288363 1.13
0.16939829 0.2288363 1.13
0.17137957 0.2288363 1.13
0.17336084 0.2288363 1.13
0.17596278 0.22964634 1.1340001
0.19172262 0.23187394 1.1450001
0.19440697 0.23268399 1.149
0.19642155 0.23268399 1.149
0.19843613 0.23268399 1.149
0.2004507 0.23268399 1.149
0.2024653 0.23268399 1.149
0.20447987 0.23268399 1.149
0.20649445 0.23268399 1.149
0.20923491 0.23349403 1.153
0.2112565 0.23349403 1.153
0.2132781 0.23349403 1.153
0.31820369 0.22073589 1.09
0.31923378 0.22012837 1.087
0.32113966 0.22012837 1.087
0.32304552 0.22012837 1.087
0.32405457 0.21952084 1.0840001
0.32475239 0.2187108 1.08
0.3278558 0.21952084 1.0840001
0.32853961 0.2187108 1.08
0.33043319 0.2187108 1.08
0.33140367 0.21810327 1.077
0.33205417 0.21729323 1.0730001
0.33393547 0.21729323 1.0730001
0.3358168 0.21729323 1.0730001
0.33769813 0.21729323 1.0730001
0.34686193 0.21952084 1.0840001
0.34747559 0.2187108 1.08
0.3493692 0.2187108 1.08
0.3535395 0.22012837 1.087
0.36407089 0.22073589 1.09
0.36833239 0.22215347 1.097
0.39730096 0.22660869 1.1190001
0.40514886 0.22660869 1.1190001
0.40856612 0.22741874 1.123
-0.072572216 0.23163462 1.1340001
-0.07058394 0.23163462 1.1340001
-0.068353698 0.23081757 1.13
-0.066137485 0.23000051 1.126
-0.063992284 0.22938772 1.123
-0.06202329 0.22938772 1.123
-0.059840389 0.22857067 1.1190001
-0.057878409 0.22857067 1.1190001
-0.055716548 0.22775361 1.115
-0.053616934 0.22714083 1.1120001
-0.051667225 0.22714083 1.1120001
-0.04940455 0.22571099 1.105
-0.047467116 0.22571099 1.105
-0.045529682 0.22571099 1.105
-0.043592248 0.22571099 1.105
-0.041504029 0.22489393 1.1010001
-0.03957361 0.22489393 1.1010001
-0.03764319 0.22489393 1.1010001
-0.035583023 0.22407688 1.097
-0.033782348 0.22489393 1.1010001
-0.03173621 0.22407688 1.097
-0.029812803 0.22407688 1.097
-0.027889397 0.22407688 1.097
-0.025894979 0.22346409 1.0940001
-0.023976833 0.22346409 1.0940001
-0.021978034 0.22264703 1.09
-0.0200669 0.22264703 1.09
-0.018105797 0.22203425 1.087
-0.016199924 0.22203425 1.087
-0.01429405 0.22203425 1.087
-0.012388176 0.22203425 1.087
-0.010482303 0.22203425 1.087
-0.0085764304 0.22203425 1.087
-0.0066521466 0.22142145 1.0840001
-0.0047515333 0.22142145 1.0840001
-0.00285092 0.22142145 1.0840001
-0.00095293665 0.22203425 1.087
0.00095030665 0.22142145 1.0840001
0.00285092 0.22142145 1.0840001
0.0047515333 0.22142145 1.0840001
0.0066276002 0.2206044 1.08
0.0085212002 0.2206044 1.08
0.0104148 0.2206044 1.08
0.0123084 0.2206044 1.08
0.014202 0.2206044 1.08
0.016095599 0.2206044 1.08
0.0179892 0.2206044 1.08
0.0198828 0.2206044 1.08
0.021776401 0.2206044 1.08
0.023669999 0.2206044 1.08
0.02565828 0.22142145 1.0840001
0.0274572 0.2206044 1.08
0.029459506 0.22142145 1.0840001
0.031244399 0.2206044 1.08
0.033137999 0.2206044 1.08
0.035031598 0.2206044 1.08
0.0369252 0.2206044 1.08
0.038818799 0.2206044 1.08
0.040712401 0.2206044 1.08
0.042606 0.2206044 1.08
0.04437599 0.21999161 1.077
0.046393201 0.2206044 1.08
0.048286799 0.2206044 1.08
0.050180398 0.2206044 1.08
0.052074 0.2206044 1.08
0.053817689 0.21999161 1.077
0.055706028 0.21999161 1.077
0.0577548 0.2206044 1.08
0.059648398 0.2206044 1.08
0.061371051 0.21999161 1.077
0.063259393 0.21999161 1.077
0.065147728 0.21999161 1.077
0.066787094 0.21917455 1.0730001
0.068668425 0.21917455 1.0730001
0.070549749 0.21917455 1.0730001
0.072431073 0.21917455 1.0730001
0.074312404 0.21917455 1.0730001
0.076193728 0.21917455 1.0730001
0.078075059 0.21917455 1.0730001
0.079956383 0.21917455 1.0730001
0.082142793 0.21999161 1.077
0.083719037 0.21917455 1.0730001
0.08591947 0.21999161 1.077
0.087807812 0.21999161 1.077
0.089946002 0.2206044 1.08
0.091584489 0.21999161 1.077
0.093472831 0.21999161 1.077
0.095626801 0.2206044 1.08
0.097249508 0.21999161 1.077
0.09913785 0.21999161 1.077
0.10102619 0.21999161 1.077
0.10291453 0.21999161 1.077
0.10441363 0.21917455 1.0730001
0.10669121 0.21999161 1.077
0.108882 0.2206044 1.08
0.11046789 0.21999161 1.077
0.1126692 0.2206044 1.08
0.1145628 0.2206044 1.08
0.11613291 0.21999161 1.077
0.11802125 0.21999161 1.077
0.11990959 0.21999161 1.077
0.12179793 0.21999161 1.077
0.1232269 0.21917455 1.0730001
0.1255746 0.21999161 1.077
0.12746295 0.21999161 1.077
0.12935129 0.21999161 1.077
0.13160519 0.2206044 1.08
0.1334988 0.2206044 1.08
0.13288513 0.21651913 1.0600001
0.13474366 0.21651913 1.0600001
0.13660219 0.21651913 1.0600001
0.14381629 0.22489393 1.1010001
0.14574671 0.22489393 1.1010001
0.14767712 0.22489393 1.1010001
0.14906402 0.22407688 1.097
0.15098742 0.22407688 1.097
0.15291083 0.22407688 1.097
0.15441081 0.22346409 1.0940001
0.15632895 0.22346409 1.0940001
0.1582471 0.22346409 1.0940001
0.16741703 0.23081757 1.13
0.16939829 0.23081757 1.13
0.17137957 0.23081757 1.13
0.19373018 0.23388152 1.1450001
0.19573775 0.23388152 1.1450001
0.19843613 0.23469856 1.149
0.2004507 0.23469856 1.149
0.2024653 0.23469856 1.149
0.20447987 0.23469856 1.149
0.20649445 0.23469856 1.149
0.20850903 0.23469856 1.149
0.21052361 0.23469856 1.149
0.22686468 0.21059549 1.031
0.22867236 0.21059549 1.031
0.23048005 0.21059549 1.031
0.31937143 0.22346409 1.0940001
0.32011482 0.22264703 1.09
0.32202595 0.22264703 1.09
0.32304552 0.22203425 1.087
0.32405457 0.22142145 1.0840001
0.32475239 0.2206044 1.08
0.326646 0.2206044 1.08
0.32853961 0.2206044 1.08
0.32951534 0.21999161 1.077
0.33140367 0.21999161 1.077
0.33205417 0.21917455 1.0730001
0.33393547 0.21917455 1.0730001
0.3358168 0.21917455 1.0730001
0.3358098 0.21794897 1.067
0.34462205 0.21999161 1.077
0.34651038 0.21999161 1.077
0.35925713 0.22203425 1.087
0.36116299 0.22203425 1.087
0.36789316 0.22264703 1.09
0.36980429 0.22264703 1.09
-0.072572216 0.23362289 1.1340001
-0.07058394 0.23362289 1.1340001
-0.068353698 0.23279883 1.13
-0.066372432 0.23279883 1.13
-0.06416323 0.23197477 1.126
-0.06202329 0.23135671 1.123
-0.059840389 0.23053265 1.1190001
-0.057878409 0.23053265 1.1190001
-0.055716548 0.22970858 1.115
-0.053616934 0.22909053 1.1120001
-0.051481374 0.22826646 1.108
-0.04940455 0.22764842 1.105
-0.047467116 0.22764842 1.105
-0.045529682 0.22764842 1.105
-0.043434449 0.22682434 1.1010001
-0.041504029 0.22682434 1.1010001
-0.03957361 0.22682434 1.1010001
-0.03764319 0.22682434 1.1010001
-0.035583023 0.22600028 1.097
-0.021978034 0.22455816 1.09
-0.020011669 0.22394012 1.087
-0.018105797 0.22394012 1.087
-0.016155213 0.22332206 1.0840001
-0.012353987 0.22332206 1.0840001
-0.010453373 0.22332206 1.0840001
-0.0085212002 0.222498 1.08
-0.0066276002 0.222498 1.08
-0.0047340002 0.222498 1.08
-0.0028404 0.222498 1.08
-0.00095030665 0.22332206 1.0840001
0.00094679999 0.222498 1.08
0.0028404 0.222498 1.08
0.0047340002 0.222498 1.08
0.0066276002 0.222498 1.08
0.0084975297 0.22187994 1.077
0.01038587 0.22187994 1.077
0.0123084 0.222498 1.08
0.014202 0.222498 1.08
0.01605089 0.22187994 1.077
0.0179892 0.222498 1.08
0.019827571 0.22187994 1.077
0.021776401 0.222498 1.08
0.023669999 0.222498 1.08
0.0255636 0.222498 1.08
0.0274572 0.222498 1.08
0.0293508 0.222498 1.08
0.031244399 0.222498 1.08
0.033137999 0.222498 1.08
0.035031598 0.222498 1.08
0.036822628 0.22187994 1.077
0.03871097 0.22187994 1.077
0.040599309 0.22187994 1.077
0.042487651 0.22187994 1.077
0.044211175 0.22105588 1.0730001
0.046092503 0.22105588 1.0730001
0.04815267 0.22187994 1.077
0.050041009 0.22187994 1.077
0.051929351 0.22187994 1.077
0.053817689 0.22187994 1.077
0.055499136 0.22105588 1.0730001
0.05759437 0.22187994 1.077
0.059482709 0.22187994 1.077
0.061143115 0.22105588 1.0730001
0.063024446 0.22105588 1.0730001
0.064724296 0.22043782 1.0700001
0.066600367 0.22043782 1.0700001
0.068476431 0.22043782 1.0700001
0.070352502 0.22043782 1.0700001
0.072228566 0.22043782 1.0700001
0.074104629 0.22043782 1.0700001
0.075767666 0.21981978 1.067
0.077638477 0.21981978 1.067
0.079509281 0.21981978 1.067
0.081608899 0.22043782 1.0700001
0.083484963 0.22043782 1.0700001
0.085121706 0.21981978 1.067
0.08699251 0.21981978 1.067
0.088863313 0.21981978 1.067
0.090989232 0.22043782 1.0700001
0.092604928 0.21981978 1.067
0.094741367 0.22043782 1.0700001
0.096346542 0.21981978 1.067
0.09876965 0.22105588 1.0730001
0.10065097 0.22105588 1.0730001
0.10224564 0.22043782 1.0700001
0.1041217 0.22043782 1.0700001
0.10599776 0.22043782 1.0700001
0.10817628 0.22105588 1.0730001
0.10944219 0.21981978 1.067
0.11193894 0.22105588 1.0730001
0.11382026 0.22105588 1.0730001
0.11570159 0.22105588 1.0730001
0.11758292 0.22105588 1.0730001
0.11946424 0.22105588 1.0730001
0.11919686 0.21714157 1.054
0.12104487 0.21714157 1.054
0.12324268 0.21775961 1.057
0.12580605 0.21899572 1.0630001
0.12730953 0.21837766 1.0600001
0.12880249 0.21775961 1.057
0.13065577 0.21775961 1.057
0.13288513 0.21837766 1.0600001
0.13474366 0.21837766 1.0600001
0.13660219 0.21837766 1.0600001
0.13806887 0.21775961 1.057
0.13992214 0.21775961 1.057
0.14673822 0.22538224 1.0940001
0.14865637 0.22538224 1.0940001
0.15057451 0.22538224 1.0940001
0.15249266 0.22538224 1.0940001
0.15384623 0.22455816 1.09
0.15575737 0.22455816 1.09
0.156222 0.222498 1.08
0.1581156 0.222498 1.08
0.19105284 0.23506501 1.141
0.19305339 0.23506501 1.141
0.19505395 0.23506501 1.141
0.19705451 0.23506501 1.141
0.19905506 0.23506501 1.141
0.20105562 0.23506501 1.141
0.20519172 0.23753722 1.153
0.20721331 0.23753722 1.153
0.20996079 0.23836128 1.1570001
0.22389892 0.21302123 1.034
0.22505699 0.21240318 1.031
0.22620454 0.21178514 1.028
0.22867236 0.21240318 1.031
0.23048005 0.21240318 1.031
0.23228773 0.21240318 1.031
0.23409542 0.21240318 1.031
0.23951848 0.21240318 1.031
0.32141492 0.22682434 1.1010001
0.32011482 0.22455816 1.09
0.32202595 0.22455816 1.09
0.32304552 0.22394012 1.087
0.32405457 0.22332206 1.0840001
0.3238503 0.22187994 1.077
0.326646 0.222498 1.08
0.32762697 0.22187994 1.077
0.32951534 0.22187994 1.077
0.33017284 0.22105588 1.0730001
0.33205417 0.22105588 1.0730001
0.33393547 0.22105588 1.0730001
0.33487791 0.22043782 1.0700001
0.3358098 0.21981978 1.067
0.33768061 0.21981978 1.067
-0.075020753 0.23706557 1.141
-0.072572216 0.23561119 1.1340001
-0.07058394 0.23561119 1.1340001
-0.068353698 0.2347801 1.13
-0.066137485 0.23394902 1.126
-0.063992284 0.2333257 1.123
-0.06202329 0.2333257 1.123
-0.059840389 0.23249462 1.1190001
-0.057878409 0.23249462 1.1190001
-0.055716548 0.23166355 1.115
-0.053761583 0.23166355 1.115
-0.051667225 0.23104024 1.1120001
-0.04940455 0.22958584 1.105
-0.047467116 0.22958584 1.105
-0.045529682 0.22958584 1.105
-0.043434449 0.22875477 1.1010001
-0.041504029 0.22875477 1.1010001
-0.03957361 0.22875477 1.1010001
-0.037506431 0.22792369 1.097
-0.035583023 0.22792369 1.097
-0.023823416 0.22584599 1.087
-0.021917542 0.22584599 1.087
-0.020011669 0.22584599 1.087
-0.016155213 0.22522268 1.0840001
-0.0142546 0.22522268 1.0840001
-0.0123084 0.22439159 1.08
-0.0104148 0.22439159 1.08
-0.0085212002 0.22439159 1.08
-0.0066276002 0.22439159 1.08
-0.0047208499 0.22376829 1.077
-0.00283251 0.22376829 1.077
-0.00094416999 0.22376829 1.077
0.00094416999 0.22376829 1.077
0.00283251 0.22376829 1.077
0.0047208499 0.22376829 1.077
0.0066091898 0.22376829 1.077
0.0084975297 0.22376829 1.077
0.01038587 0.22376829 1.077
0.01227421 0.22376829 1.077
0.01416255 0.22376829 1.077
0.01605089 0.22376829 1.077
0.01793923 0.22376829 1.077
0.019827571 0.22376829 1.077
0.021715909 0.22376829 1.077
0.02360425 0.22376829 1.077
0.02549259 0.22376829 1.077
0.02738093 0.22376829 1.077
0.029269271 0.22376829 1.077
0.031157609 0.22376829 1.077
0.033045951 0.22376829 1.077
0.034804542 0.22293721 1.0730001
0.036822628 0.22376829 1.077
0.038567197 0.22293721 1.0730001
0.040448524 0.22293721 1.0730001
0.042329852 0.22293721 1.0730001
0.044087566 0.2223139 1.0700001
0.045963634 0.2223139 1.0700001
0.047839701 0.2223139 1.0700001
0.049715765 0.2223139 1.0700001
0.051591832 0.2223139 1.0700001
0.0534679 0.2223139 1.0700001
0.055343967 0.2223139 1.0700001
0.057059605 0.2216906 1.067
0.059096098 0.2223139 1.0700001
0.060801215 0.2216906 1.067
0.062672026 0.2216906 1.067
0.066413634 0.2216906 1.067
0.068284445 0.2216906 1.067
0.070155248 0.2216906 1.067
0.073896863 0.2216906 1.067
0.075483628 0.22085951 1.0630001
0.07734742 0.22085951 1.0630001
0.079211213 0.22085951 1.0630001
0.081075013 0.22085951 1.0630001
0.084323935 0.21961288 1.057
0.086177208 0.21961288 1.057
0.088280335 0.2202362 1.0600001
0.090138867 0.2202362 1.0600001
0.0919974 0.2202362 1.0600001
0.09412156 0.22085951 1.0630001
0.095714465 0.2202362 1.0600001
0.098217346 0.2216906 1.067
0.099712946 0.22085951 1.0630001
0.10157674 0.22085951 1.0630001
0.10344053 0.22085951 1.0630001
0.10530432 0.22085951 1.0630001
0.10757139 0.2216906 1.067
0.1087242 0.2202362 1.0600001
0.10995679 0.21898958 1.054
0.11382026 0.22293721 1.0730001
0.11365282 0.21898958 1.054
0.11550083 0.21898958 1.054
0.11734884 0.21898958 1.054
0.11919686 0.21898958 1.054
0.12104487 0.21898958 1.054
0.12324268 0.21961288 1.057
0.12509595 0.21961288 1.057
0.12730953 0.2202362 1.0600001
0.12880249 0.21961288 1.057
0.13065577 0.21961288 1.057
0.13250904 0.21961288 1.057
0.13436231 0.21961288 1.057
0.13621558 0.21961288 1.057
0.137677 0.21898958 1.054
0.13952501 0.21898958 1.054
0.14137302 0.21898958 1.054
0.14322104 0.21898958 1.054
0.14919814 0.22522268 1.0840001
0.15109876 0.22522268 1.0840001
0.15299937 0.22522268 1.0840001
0.15489998 0.22522268 1.0840001
0.156222 0.22439159 1.08
0.1581156 0.22439159 1.08
0.15467556 0.21691188 1.044
0.19105284 0.23706557 1.141
0.19305339 0.23706557 1.141
0.19505395 0.23706557 1.141
0.19705451 0.23706557 1.141
0.19905506 0.23706557 1.141
0.20105562 0.23706557 1.141
0.20305616 0.23706557 1.141
0.20505671 0.23706557 1.141
0.20039636 0.20922439 1.0070001
0.2232493 0.21421087 1.031
0.22440211 0.21358755 1.028
0.22620454 0.21358755 1.028
0.22800697 0.21358755 1.028
0.2298094 0.21358755 1.028
0.23161182 0.21358755 1.028
0.23409542 0.21421087 1.031
0.23590311 0.21421087 1.031
0.23771079 0.21421087 1.031
0.23951848 0.21421087 1.031
0.24132617 0.21421087 1.031
0.24313386 0.21421087 1.031
0.30484331 0.21566527 1.0380001
0.30548152 0.21483418 1.034
0.30729446 0.21483418 1.034
0.30910739 0.21483418 1.034
0.31092036 0.21483418 1.034
0.31273329 0.21483418 1.034
0.31454626 0.21483418 1.034
-0.079852939 0.2415804 1.153
-0.077831343 0.2415804 1.153
-0.075283751 0.23990421 1.1450001
-0.072828203 0.23843755 1.138
-0.07058394 0.23759946 1.1340001
-0.068353698 0.23676136 1.13
-0.066137485 0.23592328 1.126
-0.063992284 0.2352947 1.123
-0.06202329 0.2352947 1.123
-0.059840389 0.23445661 1.1190001
-0.057878409 0.23445661 1.1190001
-0.055716548 0.23361851 1.115
-0.053761583 0.23361851 1.115
-0.051667225 0.23298995 1.1120001
-0.049538679 0.23215185 1.108
-0.047467116 0.23152328 1.105
-0.045364868 0.23068519 1.1010001
-0.043434449 0.23068519 1.1010001
-0.041504029 0.23068519 1.1010001
-0.03957361 0.23068519 1.1010001
-0.037506431 0.22984709 1.097
-0.035485715 0.22921853 1.0940001
-0.033444833 0.22838043 1.09
-0.031533699 0.22838043 1.09
-0.029622566 0.22838043 1.09
-0.027635163 0.22775187 1.087
-0.025729289 0.22775187 1.087
-0.0047208499 0.22565663 1.077
-0.00283251 0.22565663 1.077
-0.00094416999 0.22565663 1.077
0.00094416999 0.22565663 1.077
0.0028219901 0.22481854 1.0730001
0.0047033168 0.22481854 1.0730001
0.0065846434 0.22481854 1.0730001
0.0084659699 0.22481854 1.0730001
0.010347296 0.22481854 1.0730001
0.012228623 0.22481854 1.0730001
0.01410995 0.22481854 1.0730001
0.015991276 0.22481854 1.0730001
0.017872604 0.22481854 1.0730001
0.019753929 0.22481854 1.0730001
0.021635257 0.22481854 1.0730001
0.023516582 0.22481854 1.0730001
0.02539791 0.22481854 1.0730001
0.027279237 0.22481854 1.0730001
0.029160563 0.22481854 1.0730001
0.03104189 0.22481854 1.0730001
0.032831166 0.22418997 1.0700001
0.034707233 0.22418997 1.0700001
0.036583301 0.22418997 1.0700001
0.038459368 0.22418997 1.0700001
0.040222343 0.22356139 1.067
0.042211499 0.22418997 1.0700001
0.043963958 0.22356139 1.067
0.045834765 0.22356139 1.067
0.047705568 0.22356139 1.067
0.049576376 0.22356139 1.067
0.051447183 0.22356139 1.067
0.05311811 0.22272331 1.0630001
0.054981902 0.22272331 1.0630001
0.056845695 0.22272331 1.0630001
0.058709491 0.22272331 1.0630001
0.060573284 0.22272331 1.0630001
0.062437076 0.22272331 1.0630001
0.066164665 0.22272331 1.0630001
0.068028457 0.22272331 1.0630001
0.06989225 0.22272331 1.0630001
0.071553536 0.22209473 1.0600001
0.073412068 0.22209473 1.0600001
0.075270601 0.22209473 1.0600001
0.07734742 0.22272331 1.0630001
0.078764118 0.22146617 1.057
0.080617391 0.22146617 1.057
0.084084608 0.22083759 1.054
0.086177208 0.22146617 1.057
0.08803048 0.22146617 1.057
0.08988376 0.22146617 1.057
0.091737032 0.22146617 1.057
0.093590304 0.22146617 1.057
0.095443577 0.22146617 1.057
0.097020701 0.22083759 1.054
0.099150121 0.22146617 1.057
0.10100339 0.22146617 1.057
0.10285667 0.22146617 1.057
0.10470995 0.22146617 1.057
0.10626077 0.22083759 1.054
0.10810878 0.22083759 1.054
0.10995679 0.22083759 1.054
0.11180481 0.22083759 1.054
0.11365282 0.22083759 1.054
0.11550083 0.22083759 1.054
0.11734884 0.22083759 1.054
0.11919686 0.22083759 1.054
0.1205855 0.21999949 1.0500001
0.12289289 0.22083759 1.054
0.1247409 0.22083759 1.054
0.12658891 0.22083759 1.054
0.12843692 0.22083759 1.054
0.1297905 0.21999949 1.0500001
0.1312554 0.21937093 1.0470001
0.13309115 0.21937093 1.0470001
0.13492689 0.21937093 1.0470001
0.13676263 0.21937093 1.0470001
0.13820124 0.21874236 1.044
0.14043412 0.21937093 1.0470001
0.14145455 0.21811379 1.041
0.14327978 0.21811379 1.041
0.14468682 0.21748522 1.0380001
0.14650679 0.21748522 1.0380001
0.14832674 0.21748522 1.0380001
0.15014669 0.21748522 1.0380001
0.15240587 0.21811379 1.041
0.15467556 0.21874236 1.044
0.15650603 0.21874236 1.044
0.15788153 0.21811379 1.041
0.19055051 0.23843755 1.138
0.19305339 0.23906612 1.141
0.19505395 0.23906612 1.141
0.19705451 0.23906612 1.141
0.19905506 0.23906612 1.141
0.20105562 0.23906612 1.141
0.20305616 0.23906612 1.141
0.20721331 0.2415804 1.153
0.19745164 0.21161857 1.01
0.19863075 0.21099 1.0070001
0.20039636 0.21099 1.0070001
0.20216197 0.21099 1.0070001
0.20392756 0.21099 1.0070001
0.20569317 0.21099 1.0070001
0.22144161 0.21601856 1.031
0.2232493 0.21601856 1.031
0.22440211 0.21538998 1.028
0.22686468 0.21601856 1.031
0.22933775 0.21664712 1.034
0.2298094 0.21538998 1.028
0.23161182 0.21538998 1.028
0.23341425 0.21538998 1.028
0.30302334 0.21748522 1.0380001
0.30484331 0.21748522 1.0380001
0.30548152 0.21664712 1.034
0.30729446 0.21664712 1.034
0.31273329 0.21664712 1.034
0.31454626 0.21664712 1.034
-0.079852939 0.24360199 1.153
-0.077831343 0.24360199 1.153
-0.075283751 0.24191178 1.1450001
-0.073020197 0.24106668 1.141
-0.07058394 0.23958774 1.1340001
-0.068353698 0.23874263 1.13
-0.066137485 0.23789753 1.126
-0.063992284 0.23726369 1.123
-0.06202329 0.23726369 1.123
-0.059840389 0.23641859 1.1190001
-0.057878409 0.23641859 1.1190001
-0.055716548 0.23557349 1.115
-0.053761583 0.23557349 1.115
-0.051667225 0.23493965 1.1120001
-0.049538679 0.23409455 1.108
-0.047467116 0.23346071 1.105
-0.045529682 0.23346071 1.105
-0.043434449 0.2326156 1.1010001
-0.035485715 0.23113666 1.0940001
-0.033444833 0.23029156 1.09
-0.031446911 0.22965774 1.087
-0.029622566 0.23029156 1.09
-0.027635163 0.22965774 1.087
-0.023757666 0.2290239 1.0840001
-0.021857053 0.2290239 1.0840001
-0.0198828 0.2281788 1.08
-0.0179892 0.2281788 1.08
-0.016095599 0.2281788 1.08
-0.01416255 0.22754496 1.077
-0.0123084 0.2281788 1.08
-0.01038587 0.22754496 1.077
-0.0084975297 0.22754496 1.077
-0.0066091898 0.22754496 1.077
-0.0047208499 0.22754496 1.077
-0.0028219901 0.22669986 1.0730001
-0.00094066333 0.22669986 1.0730001
0.00094066333 0.22669986 1.0730001
0.0028140999 0.22606604 1.0700001
0.0047033168 0.22669986 1.0730001
0.0065846434 0.22669986 1.0730001
0.0084423004 0.22606604 1.0700001
0.010318367 0.22606604 1.0700001
0.012228623 0.22669986 1.0730001
0.01403105 0.2254322 1.067
0.015946567 0.22606604 1.0700001
0.017772663 0.2254322 1.067
0.0196987 0.22606604 1.0700001
0.021574767 0.22606604 1.0700001
0.023385083 0.2254322 1.067
0.025255891 0.2254322 1.067
0.027126696 0.2254322 1.067
0.028997503 0.2254322 1.067
0.0309551 0.22606604 1.0700001
0.032739118 0.2254322 1.067
0.034609921 0.2254322 1.067
0.036480729 0.2254322 1.067
0.038351536 0.2254322 1.067
0.040071558 0.2245871 1.0630001
0.041935351 0.2245871 1.0630001
0.043799143 0.2245871 1.0630001
0.045662936 0.2245871 1.0630001
0.047526728 0.2245871 1.0630001
0.049251132 0.22395326 1.0600001
0.051254317 0.2245871 1.0630001
0.0529682 0.22395326 1.0600001
0.054826733 0.22395326 1.0600001
0.056685265 0.22395326 1.0600001
0.058543801 0.22395326 1.0600001
0.060402334 0.22395326 1.0600001
0.062260866 0.22395326 1.0600001
0.064119399 0.22395326 1.0600001
0.065791205 0.22331944 1.057
0.067644477 0.22331944 1.057
0.069497749 0.22331944 1.057
0.071351022 0.22331944 1.057
0.072996527 0.22268561 1.054
0.074844539 0.22268561 1.054
0.076692551 0.22268561 1.054
0.078540564 0.22268561 1.054
0.080083497 0.2218405 1.0500001
0.082236595 0.22268561 1.054
0.087780632 0.22268561 1.054
0.089628644 0.22268561 1.054
0.091476656 0.22268561 1.054
0.092970498 0.2218405 1.0500001
0.094811499 0.2218405 1.0500001
0.0966525 0.2218405 1.0500001
0.098493502 0.2218405 1.0500001
0.1003345 0.2218405 1.0500001
0.1021755 0.2218405 1.0500001
0.1040165 0.2218405 1.0500001
0.1058575 0.2218405 1.0500001
0.1076985 0.2218405 1.0500001
0.10922653 0.22120667 1.0470001
0.1113805 0.2218405 1.0500001
0.1132215 0.2218405 1.0500001
0.1150625 0.2218405 1.0500001
0.1169035 0.2218405 1.0500001
0.1187445 0.2218405 1.0500001
0.12024097 0.22120667 1.0470001
0.1224265 0.2218405 1.0500001
0.1242675 0.2218405 1.0500001
0.12574819 0.22120667 1.0470001
0.12758394 0.22120667 1.0470001
0.12904884 0.22057284 1.044
0.13087931 0.22057284 1.044
0.13232845 0.21993901 1.041
0.13454027 0.22057284 1.044
0.13637076 0.22057284 1.044
0.13780411 0.21993901 1.041
0.13922694 0.21930517 1.0380001
0.1410469 0.21930517 1.0380001
0.14231631 0.21846007 1.034
0.14412926 0.21846007 1.034
0.14594221 0.21846007 1.034
0.14775515 0.21846007 1.034
0.1495681 0.21846007 1.034
0.15138105 0.21846007 1.034
0.15423109 0.21993901 1.041
0.15605631 0.21993901 1.041
0.15681988 0.21846007 1.034
0.19105284 0.24106668 1.141
0.19305339 0.24106668 1.141
0.19505395 0.24106668 1.141
0.19705451 0.24106668 1.141
0.19905506 0.24106668 1.141
0.20105562 0.24106668 1.141
0.20519172 0.24360199 1.153
0.20721331 0.24360199 1.153
0.19568077 0.21338943 1.01
0.19686514 0.21275561 1.0070001
0.19863075 0.21275561 1.0070001
0.20039636 0.21275561 1.0070001
0.20155969 0.21212177 1.0040001
0.20332004 0.21212177 1.0040001
0.20569317 0.21275561 1.0070001
0.21870203 0.21338943 1.01
0.2204729 0.21338943 1.01
0.22224377 0.21338943 1.01
0.22468002 0.21402326 1.013
0.2311507 0.21846007 1.034
0.23161182 0.21719241 1.028
0.2576611 0.21338943 1.01
-0.079852939 0.24562359 1.153
-0.077561326 0.24477147 1.149
-0.075283751 0.24391934 1.1450001
-0.073020197 0.24306723 1.141
-0.070832916 0.24242814 1.138
-0.068353698 0.24072389 1.13
-0.066137485 0.23987179 1.126
-0.063992284 0.23923269 1.123
-0.06202329 0.23923269 1.123
-0.059840389 0.23838057 1.1190001
-0.057878409 0.23838057 1.1190001
-0.055716548 0.23752844 1.115
-0.053761583 0.23752844 1.115
-0.051667225 0.23688936 1.1120001
-0.047295291 0.23454604 1.1010001
-0.045529682 0.23539814 1.105
-0.043434449 0.23454604 1.1010001
-0.041504029 0.23454604 1.1010001
-0.039429836 0.23369391 1.097
-0.037403859 0.23305482 1.0940001
-0.035355967 0.23220269 1.09
-0.033352785 0.23156361 1.087
-0.031446911 0.23156361 1.087
-0.029459506 0.23092452 1.0840001
-0.027558893 0.23092452 1.0840001
-0.0255636 0.23007239 1.08
-0.023669999 0.23007239 1.08
-0.01038587 0.22943331 1.077
-0.0084975297 0.22943331 1.077
-0.0066091898 0.22943331 1.077
-0.0047033168 0.22858119 1.0730001
-0.0028219901 0.22858119 1.0730001
-0.00094066333 0.22858119 1.0730001
0.00093803334 0.22794209 1.0700001
0.0028140999 0.22794209 1.0700001
0.0046901666 0.22794209 1.0700001
0.0065662335 0.22794209 1.0700001
0.0084423004 0.22794209 1.0700001
0.010289436 0.22730301 1.067
0.012194433 0.22794209 1.0700001
0.0140705 0.22794209 1.0700001
0.015946567 0.22794209 1.0700001
0.017772663 0.22730301 1.067
0.019643471 0.22730301 1.067
0.021514276 0.22730301 1.067
0.023385083 0.22730301 1.067
0.025255891 0.22730301 1.067
0.027025003 0.22645089 1.0630001
0.028888797 0.22645089 1.0630001
0.03086831 0.22730301 1.067
0.032616384 0.22645089 1.0630001
0.034480177 0.22645089 1.0630001
0.036343969 0.22645089 1.0630001
0.038207762 0.22645089 1.0630001
0.040071558 0.22645089 1.0630001
0.041935351 0.22645089 1.0630001
0.043799143 0.22645089 1.0630001
0.045534067 0.22581179 1.0600001
0.047392599 0.22581179 1.0600001
0.049251132 0.22581179 1.0600001
0.051109668 0.22581179 1.0600001
0.052818291 0.22517271 1.057
0.054671563 0.22517271 1.057
0.056524836 0.22517271 1.057
0.058212418 0.22453362 1.054
0.060231384 0.22517271 1.057
0.062084656 0.22517271 1.057
0.063937932 0.22517271 1.057
0.065604471 0.22453362 1.054
0.067452483 0.22453362 1.054
0.069037497 0.22368149 1.0500001
0.070878498 0.22368149 1.0500001
0.072719499 0.22368149 1.0500001
0.074347466 0.22304241 1.0470001
0.076183207 0.22304241 1.0470001
0.078018948 0.22304241 1.0470001
0.07985469 0.22304241 1.0470001
0.081690431 0.22304241 1.0470001
0.083765499 0.22368149 1.0500001
0.085606501 0.22368149 1.0500001
0.087447502 0.22368149 1.0500001
0.089288503 0.22368149 1.0500001
0.091129497 0.22368149 1.0500001
0.092970498 0.22368149 1.0500001
0.094540611 0.22304241 1.0470001
0.096100196 0.22240332 1.044
0.097649269 0.22176422 1.041
0.099761158 0.22240332 1.044
0.10129971 0.22176422 1.041
0.10312493 0.22176422 1.041
0.1052526 0.22240332 1.044
0.10708308 0.22240332 1.044
0.10891356 0.22240332 1.044
0.11074404 0.22240332 1.044
0.11289801 0.22304241 1.0470001
0.11473375 0.22304241 1.0470001
0.11656949 0.22304241 1.0470001
0.11840523 0.22304241 1.0470001
0.11989644 0.22240332 1.044
0.12172692 0.22240332 1.044
0.1235574 0.22240332 1.044
0.12538788 0.22240332 1.044
0.1268528 0.22176422 1.041
0.12867801 0.22176422 1.041
0.13012713 0.22112514 1.0380001
0.13143863 0.22027302 1.034
0.13325158 0.22027302 1.034
0.13506453 0.22027302 1.034
0.13687748 0.22027302 1.034
0.13828804 0.21963392 1.031
0.13968806 0.21899484 1.028
0.14149049 0.21899484 1.028
0.14371109 0.21963392 1.031
0.14551878 0.21963392 1.031
0.14775515 0.22027302 1.034
0.1495681 0.22027302 1.034
0.15138105 0.22027302 1.034
0.15378661 0.22112514 1.0380001
0.15560658 0.22112514 1.0380001
0.15742654 0.22112514 1.0380001
0.15679184 0.21771666 1.0220001
0.17213175 0.21899484 1.028
0.19305339 0.24306723 1.141
0.19505395 0.24306723 1.141
0.19705451 0.24306723 1.141
0.19905506 0.24306723 1.141
0.20317014 0.24562359 1.153
0.20590357 0.24647571 1.1570001
0.20793219 0.24647571 1.1570001
0.21068667 0.24732783 1.161
0.19333392 0.21452121 1.0070001
0.19509953 0.21452121 1.0070001
0.19686514 0.21452121 1.0070001
0.19863075 0.21452121 1.0070001
0.19979934 0.21388212 1.0040001
0.20155969 0.21388212 1.0040001
0.20332004 0.21388212 1.0040001
0.20508039 0.21388212 1.0040001
0.21740282 0.21388212 1.0040001
0.21916316 0.21388212 1.0040001
0.22158363 0.21452121 1.0070001
0.22401462 0.2151603 1.01
0.22645615 0.21579939 1.013
0.22823228 0.21579939 1.013
0.23000841 0.21579939 1.013
0.24880676 0.2151603 1.01
0.25057763 0.2151603 1.01
0.25234851 0.2151603 1.01
0.25411937 0.2151603 1.01
0.25589022 0.2151603 1.01
0.2576611 0.2151603 1.01
0.25866139 0.21452121 1.0070001
0.26042697 0.21452121 1.0070001
0.26219258 0.21452121 1.0070001
0.26395819 0.21452121 1.0070001
0.2674894 0.21452121 1.0070001
0.27005717 0.2151603 1.01
0.27603692 0.21707757 1.0190001
0.27700561 0.21643847 1.016
0.28422409 0.2151603 1.01
0.28514546 0.21452121 1.0070001
0.30821058 0.21963392 1.031
0.31001827 0.21963392 1.031
0.32122293 0.22112514 1.0380001
0.3230429 0.22112514 1.0380001
0.37105882 0.22943331 1.077
-0.079575911 0.24678604 1.149
-0.077561326 0.24678604 1.149
-0.075020753 0.24506778 1.141
-0.072828203 0.24442343 1.138
-0.07058394 0.24356429 1.1340001
-0.068353698 0.24270517 1.13
-0.066137485 0.24184602 1.126
-0.06416323 0.24184602 1.126
-0.059840389 0.24034254 1.1190001
-0.057878409 0.24034254 1.1190001
-0.055716548 0.23948342 1.115
-0.053761583 0.23948342 1.115
-0.051667225 0.23883906 1.1120001
-0.049538679 0.23797993 1.108
-0.047295291 0.23647645 1.1010001
-0.045529682 0.23733558 1.105
-0.043434449 0.23647645 1.1010001
-0.041353244 0.23561731 1.097
-0.039322007 0.23497297 1.0940001
-0.0372671 0.23411383 1.09
-0.035355967 0.23411383 1.09
-0.033352785 0.23346949 1.087
-0.031446911 0.23346949 1.087
-0.029459506 0.23282513 1.0840001
-0.027558893 0.23282513 1.0840001
-0.0255636 0.231966 1.08
-0.023669999 0.231966 1.08
-0.0047033168 0.23046252 1.0730001
-0.0028140999 0.22981817 1.0700001
-0.00093803334 0.22981817 1.0700001
0.0046770168 0.22917381 1.067
0.0065478231 0.22917381 1.067
0.0084186299 0.22917381 1.067
0.010250864 0.22831468 1.0630001
0.012160243 0.22917381 1.067
0.01403105 0.22917381 1.067
0.015901856 0.22917381 1.067
0.017772663 0.22917381 1.067
0.019569829 0.22831468 1.0630001
0.021433624 0.22831468 1.0630001
0.023297416 0.22831468 1.0630001
0.02516121 0.22831468 1.0630001
0.027025003 0.22831468 1.0630001
0.028888797 0.22831468 1.0630001
0.03075259 0.22831468 1.0630001
0.032616384 0.22831468 1.0630001
0.034480177 0.22831468 1.0630001
0.036343969 0.22831468 1.0630001
0.038207762 0.22831468 1.0630001
0.040071558 0.22831468 1.0630001
0.041935351 0.22831468 1.0630001
0.043799143 0.22831468 1.0630001
0.045662936 0.22831468 1.0630001
0.047526728 0.22831468 1.0630001
0.049111743 0.22702599 1.057
0.050965015 0.22702599 1.057
0.052668381 0.22638163 1.054
0.054671563 0.22702599 1.057
0.056364406 0.22638163 1.054
0.058212418 0.22638163 1.054
0.060060434 0.22638163 1.054
0.061908446 0.22638163 1.054
0.063514501 0.2255225 1.0500001
0.065355502 0.2255225 1.0500001
0.067004509 0.22487815 1.0470001
0.06884025 0.22487815 1.0470001
0.070675991 0.22487815 1.0470001
0.072303958 0.22423379 1.044
0.074134439 0.22423379 1.044
0.07596492 0.22423379 1.044
0.077795401 0.22423379 1.044
0.079625882 0.22423379 1.044
0.081456363 0.22423379 1.044
0.083526172 0.22487815 1.0470001
0.085361913 0.22487815 1.0470001
0.087197646 0.22487815 1.0470001
0.089033388 0.22487815 1.0470001
0.090608761 0.22423379 1.044
0.092439242 0.22423379 1.044
0.093998827 0.22358945 1.041
0.095824048 0.22358945 1.041
0.09736786 0.22294509 1.0380001
0.09947449 0.22358945 1.041
0.10100778 0.22294509 1.0380001
0.1046477 0.22294509 1.0380001
0.10677537 0.22358945 1.041
0.10828762 0.22294509 1.0380001
0.11010758 0.22294509 1.0380001
0.11225103 0.22358945 1.041
0.114405 0.22423379 1.044
0.11623548 0.22423379 1.044
0.11806596 0.22423379 1.044
0.11955191 0.22358945 1.041
0.12137713 0.22358945 1.041
0.1228473 0.22294509 1.0380001
0.12466726 0.22294509 1.0380001
0.12599979 0.22208597 1.034
0.12781274 0.22208597 1.034
0.1292496 0.22144161 1.031
0.13105728 0.22144161 1.031
0.13247836 0.22079727 1.028
0.13388892 0.22015291 1.0250001
0.13608322 0.22079727 1.028
0.13748325 0.22015291 1.0250001
0.13928041 0.22015291 1.0250001
0.14107758 0.22015291 1.0250001
0.14329292 0.22079727 1.028
0.14509535 0.22079727 1.028
0.14732647 0.22144161 1.031
0.14913414 0.22144161 1.031
0.15094183 0.22144161 1.031
0.15455721 0.22144161 1.031
0.1563649 0.22144161 1.031
0.15495083 0.21693116 1.01
0.1567217 0.21693116 1.01
0.15849257 0.21693116 1.01
0.1597874 0.21628681 1.0070001
0.1620343 0.21693116 1.01
0.16380517 0.21693116 1.01
0.16557603 0.21693116 1.01
0.16883811 0.21886422 1.0190001
0.17112708 0.21950856 1.0220001
0.19505395 0.24506778 1.141
0.19705451 0.24506778 1.141
0.19975288 0.24592692 1.1450001
0.20317014 0.24764518 1.153
0.20519172 0.24764518 1.153
0.20721331 0.24764518 1.153
0.20996079 0.24850431 1.1570001
0.21272229 0.24936345 1.161
0.1862715 0.21628681 1.0070001
0.18803711 0.21628681 1.0070001
0.18980272 0.21628681 1.0070001
0.19099762 0.21564247 1.0040001
0.19275796 0.21564247 1.0040001
0.19451831 0.21564247 1.0040001
0.19627865 0.21564247 1.0040001
0.198039 0.21564247 1.0040001
0.19920233 0.21499811 1.001
0.20095742 0.21499811 1.001
0.20210499 0.21435377 0.99800003
0.20446759 0.21499811 1.001
0.20560463 0.21435377 0.99800003
0.20910428 0.21435377 0.99800003
0.21499811 0.21499811 1.001
0.21740282 0.21564247 1.0040001
0.21916316 0.21564247 1.0040001
0.22158363 0.21628681 1.0070001
0.22401462 0.21693116 1.01
0.22578549 0.21693116 1.01
0.22755636 0.21693116 1.01
0.22455904 0.21242072 0.98900002
0.23577949 0.21005809 0.97800004
0.25589022 0.21693116 1.01
0.25689578 0.21628681 1.0070001
0.25789079 0.21564247 1.0040001
0.25965112 0.21564247 1.0040001
0.26414055 0.21499811 1.001
0.2674894 0.21628681 1.0070001
0.26925501 0.21628681 1.0070001
0.27182803 0.21693116 1.01
0.27796382 0.21757552 1.013
0.28691107 0.21628681 1.0070001
0.30097982 0.22144161 1.031
0.30278751 0.22144161 1.031
0.31998509 0.22208597 1.034
0.32179803 0.22208597 1.034
0.36968067 0.23046252 1.0730001
0.37294716 0.23132165 1.077
-0.079575911 0.24880064 1.149
-0.077291317 0.24793448 1.1450001
-0.075020753 0.24706833 1.141
-0.068595663 0.24555258 1.1340001
-0.066372432 0.24468642 1.13
-0.063992284 0.24317068 1.123
-0.049538679 0.23992263 1.108
-0.047295291 0.23840687 1.1010001
-0.045529682 0.23927301 1.105
-0.043434449 0.23840687 1.1010001
-0.041240152 0.23689111 1.0940001
-0.039322007 0.23689111 1.0940001
-0.0372671 0.23602496 1.09
-0.035355967 0.23602496 1.09
-0.033352785 0.23537536 1.087
-0.031446911 0.23537536 1.087
-0.029459506 0.23472574 1.0840001
-0.027558893 0.23472574 1.0840001
-0.0065846434 0.23234384 1.0730001
-0.0046901666 0.23169424 1.0700001
-0.00279569 0.23017848 1.0630001
-0.00093540334 0.23104462 1.067
0.00279569 0.23017848 1.0630001
0.0046594832 0.23017848 1.0630001
0.0065232767 0.23017848 1.0630001
0.010250864 0.23017848 1.0630001
0.012160243 0.23104462 1.067
0.01397845 0.23017848 1.0630001
0.015842244 0.23017848 1.0630001
0.017706037 0.23017848 1.0630001
0.021373134 0.22952886 1.0600001
0.023231667 0.22952886 1.0600001
0.025090199 0.22952886 1.0600001
0.026948733 0.22952886 1.0600001
0.028725736 0.22887926 1.057
0.03049222 0.22822964 1.054
0.032432284 0.22887926 1.057
0.034382865 0.22952886 1.0600001
0.036241401 0.22952886 1.0600001
0.038099933 0.22952886 1.0600001
0.039732285 0.22822964 1.054
0.041580301 0.22822964 1.054
0.043428313 0.22822964 1.054
0.045276325 0.22822964 1.054
0.047124341 0.22822964 1.054
0.048972353 0.22822964 1.054
0.0506275 0.2273635 1.0500001
0.052468501 0.2273635 1.0500001
0.054309499 0.2273635 1.0500001
0.0561505 0.2273635 1.0500001
0.057825811 0.2267139 1.0470001
0.059661549 0.2267139 1.0470001
0.06149729 0.2267139 1.0470001
0.063333027 0.2267139 1.0470001
0.065168768 0.2267139 1.0470001
0.066812523 0.22606428 1.044
0.068642996 0.22606428 1.044
0.070473477 0.22606428 1.044
0.072096191 0.22541466 1.041
0.073921412 0.22541466 1.041
0.075746633 0.22541466 1.041
0.077571847 0.22541466 1.041
0.079397067 0.22541466 1.041
0.081222288 0.22541466 1.041
0.083047509 0.22541466 1.041
0.08487273 0.22541466 1.041
0.086697951 0.22541466 1.041
0.088523172 0.22541466 1.041
0.090088017 0.22476506 1.0380001
0.091553807 0.22389892 1.034
0.093727939 0.22476506 1.0380001
0.095179699 0.22389892 1.034
0.096992649 0.22389892 1.034
0.099187821 0.22476506 1.0380001
0.10003468 0.22259969 1.028
0.10183711 0.22259969 1.028
0.10363954 0.22259969 1.028
0.10544196 0.22259969 1.028
0.10661845 0.22130047 1.0220001
0.10809212 0.22065087 1.0190001
0.10955528 0.22000125 1.016
0.11199417 0.22130047 1.0220001
0.1147881 0.2232493 1.031
0.11738742 0.22476506 1.0380001
0.11874801 0.22389892 1.034
0.12056095 0.22389892 1.034
0.12201885 0.2232493 1.031
0.12382653 0.2232493 1.031
0.12563422 0.2232493 1.031
0.12707108 0.22259969 1.028
0.12849742 0.22195008 1.0250001
0.13029458 0.22195008 1.0250001
0.13170514 0.22130047 1.0220001
0.13349704 0.22130047 1.0220001
0.13528895 0.22130047 1.0220001
0.13708086 0.22130047 1.0220001
0.13887277 0.22130047 1.0220001
0.14025176 0.22065087 1.0190001
0.14287475 0.22195008 1.0250001
0.14467192 0.22195008 1.0250001
0.14689778 0.22259969 1.028
0.14870019 0.22259969 1.028
0.15006341 0.22195008 1.0250001
0.15230505 0.22259969 1.028
0.15095937 0.21805242 1.0070001
0.15545492 0.22195008 1.0250001
0.15495083 0.21870203 1.01
0.1567217 0.21870203 1.01
0.15849257 0.21870203 1.01
0.1597874 0.21805242 1.0070001
0.16155301 0.21805242 1.0070001
0.16331862 0.21805242 1.0070001
0.16557603 0.21870203 1.01
0.16784397 0.21935165 1.013
0.17012243 0.22000125 1.016
0.17291899 0.22130047 1.0220001
0.17419805 0.22065087 1.0190001
0.19705451 0.24706833 1.141
0.19905506 0.24706833 1.141
0.20317014 0.24966678 1.153
0.20519172 0.24966678 1.153
0.18097468 0.21805242 1.0070001
0.18274029 0.21805242 1.0070001
0.18395622 0.21740282 1.0040001
0.18571657 0.21740282 1.0040001
0.18747692 0.21740282 1.0040001
0.18923727 0.21740282 1.0040001
0.19099762 0.21740282 1.0040001
0.19275796 0.21740282 1.0040001
0.19335584 0.2161036 0.99800003
0.19510567 0.2161036 0.99800003
0.19744726 0.2167532 1.001
0.19800831 0.21545398 0.99500006
0.19975288 0.21545398 0.99500006
0.20149745 0.21545398 0.99500006
0.20324202 0.21545398 0.99500006
0.20498659 0.21545398 0.99500006
0.20673116 0.21545398 0.99500006
0.20847571 0.21545398 0.99500006
0.21022028 0.21545398 0.99500006
0.21196485 0.21545398 0.99500006
0.21435377 0.2161036 0.99800003
0.2167532 0.2167532 1.001
0.21785341 0.2161036 0.99800003
0.21960324 0.2161036 0.99800003
0.22201847 0.2167532 1.001
0.22377355 0.2167532 1.001
0.23205017 0.21307208 0.98400003
0.23377544 0.21307208 0.98400003
0.23550072 0.21307208 0.98400003
0.23650275 0.21242248 0.98100007
0.23822276 0.21242248 0.98100007
0.24067655 0.21307208 0.98400003
0.25234851 0.21870203 1.01
0.25336456 0.21805242 1.0070001
0.25513017 0.21805242 1.0070001
0.25689578 0.21805242 1.0070001
0.25712019 0.2167532 1.001
0.25965112 0.21740282 1.0040001
0.26063037 0.2167532 1.001
0.26317182 0.21740282 1.0040001
0.26414055 0.2167532 1.001
0.26669252 0.21740282 1.0040001
0.26845285 0.21740282 1.0040001
0.27102062 0.21805242 1.0070001
0.27278623 0.21805242 1.0070001
0.27455184 0.21805242 1.0070001
0.31998509 0.22389892 1.034
0.3686471 0.23169424 1.0700001
-0.07058394 0.24754086 1.1340001
-0.068595663 0.24754086 1.1340001
-0.066372432 0.2466677 1.13
-0.06416323 0.24579453 1.126
-0.055716548 0.24339335 1.115
-0.053616934 0.24273849 1.1120001
-0.043276649 0.23946413 1.097
-0.041353244 0.23946413 1.097
-0.039322007 0.23880926 1.0940001
-0.0372671 0.23793609 1.09
-0.035355967 0.23793609 1.09
-0.033352785 0.23728123 1.087
-0.031446911 0.23728123 1.087
-0.029459506 0.23662636 1.0840001
-0.027558893 0.23662636 1.0840001
-0.0255636 0.23575319 1.08
-0.02360425 0.23509833 1.077
-0.021715909 0.23509833 1.077
-0.019827571 0.23509833 1.077
-0.0065662335 0.23357029 1.0700001
-0.0046770168 0.23291543 1.067
-0.00279569 0.23204227 1.0630001
-0.00093540334 0.23291543 1.067
0.00093189668 0.23204227 1.0630001
0.00279569 0.23204227 1.0630001
0.0046594832 0.23204227 1.0630001
0.0065232767 0.23204227 1.0630001
0.01397845 0.23204227 1.0630001
0.015842244 0.23204227 1.0630001
0.017656067 0.23138739 1.0600001
0.019459371 0.23073253 1.057
0.021312643 0.23073253 1.057
0.023165917 0.23073253 1.057
0.025019189 0.23073253 1.057
0.026796194 0.23007765 1.054
0.028644206 0.23007765 1.054
0.03049222 0.23007765 1.054
0.032340232 0.23007765 1.054
0.034188248 0.23007765 1.054
0.03603626 0.23007765 1.054
0.037884273 0.23007765 1.054
0.0395815 0.22920451 1.0500001
0.041422501 0.22920451 1.0500001
0.043263499 0.22920451 1.0500001
0.0451045 0.22920451 1.0500001
0.046945501 0.22920451 1.0500001
0.048786499 0.22920451 1.0500001
0.050482851 0.22854963 1.0470001
0.052318588 0.22854963 1.0470001
0.054309499 0.22920451 1.0500001
0.0561505 0.22920451 1.0500001
0.057991501 0.22920451 1.0500001
0.059661549 0.22854963 1.0470001
0.06132108 0.22789475 1.044
0.063333027 0.22854963 1.0470001
0.064982042 0.22789475 1.044
0.066812523 0.22789475 1.044
0.06844575 0.22723989 1.041
0.07027097 0.22723989 1.041
0.072096191 0.22723989 1.041
0.073708378 0.22658502 1.0380001
0.075528339 0.22658502 1.0380001
0.077348299 0.22658502 1.0380001
0.07916826 0.22658502 1.0380001
0.080988221 0.22658502 1.0380001
0.082808182 0.22658502 1.0380001
0.084302023 0.22571185 1.034
0.086448096 0.22658502 1.0380001
0.087927915 0.22571185 1.034
0.089480489 0.22505699 1.031
0.091288179 0.22505699 1.031
0.096429825 0.22440211 1.028
0.098232254 0.22440211 1.028
0.099742748 0.22374725 1.0250001
0.10153992 0.22374725 1.0250001
0.10303463 0.22309238 1.0220001
0.10451883 0.22243752 1.0190001
0.10630547 0.22243752 1.0190001
0.10809212 0.22243752 1.0190001
0.10955528 0.22178264 1.016
0.11166541 0.22243752 1.0190001
0.11311805 0.22178264 1.016
0.11489944 0.22178264 1.016
0.11771441 0.22374725 1.0250001
0.11986137 0.22440211 1.028
0.1216638 0.22440211 1.028
0.12346622 0.22440211 1.028
0.12526865 0.22440211 1.028
0.12670025 0.22374725 1.0250001
0.12774524 0.22243752 1.0190001
0.12953188 0.22243752 1.0190001
0.13131852 0.22243752 1.0190001
0.1327133 0.22178264 1.016
0.13449469 0.22178264 1.016
0.13667847 0.22243752 1.0190001
0.13846512 0.22243752 1.0190001
0.13983886 0.22178264 1.016
0.14287475 0.22374725 1.0250001
0.14424849 0.22309238 1.0220001
0.14689778 0.22440211 1.028
0.14870019 0.22440211 1.028
0.15050262 0.22440211 1.028
0.15230505 0.22440211 1.028
0.15050964 0.21916316 1.0040001
0.15272498 0.21981803 1.0070001
0.15449058 0.21981803 1.0070001
0.15625618 0.21981803 1.0070001
0.15849257 0.2204729 1.01
0.1597874 0.21981803 1.0070001
0.16155301 0.21981803 1.0070001
0.16331862 0.21981803 1.0070001
0.16508423 0.21981803 1.0070001
0.16684982 0.21981803 1.0070001
0.16861543 0.21981803 1.0070001
0.17038104 0.21981803 1.0070001
0.1726595 0.2204729 1.01
0.17443037 0.2204729 1.01
0.17515449 0.21916316 1.0040001
0.17691484 0.21916316 1.0040001
0.1781413 0.21850829 1.001
0.17989638 0.21850829 1.001
0.18165147 0.21850829 1.001
0.18285689 0.21785341 0.99800003
0.18516164 0.21850829 1.001
0.18691672 0.21850829 1.001
0.18867181 0.21850829 1.001
0.1904269 0.21850829 1.001
0.19218199 0.21850829 1.001
0.19277461 0.21719855 0.99500006
0.19451918 0.21719855 0.99500006
0.19626375 0.21719855 0.99500006
0.1974113 0.21654367 0.99200004
0.19915061 0.21654367 0.99200004
0.20088992 0.21654367 0.99200004
0.20201643 0.21588881 0.98900002
0.20436853 0.21654367 0.99200004
0.20610784 0.21654367 0.99200004
0.20784715 0.21654367 0.99200004
0.20958646 0.21654367 0.99200004
0.21132576 0.21654367 0.99200004
0.21306506 0.21654367 0.99200004
0.21480437 0.21654367 0.99200004
0.21719855 0.21719855 0.99500006
0.21828298 0.21654367 0.99200004
0.22002229 0.21654367 0.99200004
0.2217616 0.21654367 0.99200004
0.22282499 0.21588881 0.98900002
0.23102708 0.21545222 0.98700005
0.23205017 0.21479736 0.98400003
0.23377544 0.21479736 0.98400003
0.23895128 0.21479736 0.98400003
0.24067655 0.21479736 0.98400003
0.24660195 0.21545222 0.98700005
0.25260976 0.21916316 1.0040001
0.25437009 0.21916316 1.0040001
0.25613043 0.21916316 1.0040001
0.25403783 0.21588881 0.98900002
0.25965112 0.21916316 1.0040001
0.25750592 0.21588881 0.98900002
-0.070832916 0.25040931 1.138
-0.068595663 0.24952914 1.1340001
-0.066372432 0.24864897 1.13
-0.06416323 0.24776879 1.126
-0.06202329 0.24710867 1.123
-0.059840389 0.24622849 1.1190001
-0.057878409 0.24622849 1.1190001
-0.055716548 0.24534832 1.115
-0.053616934 0.24468818 1.1120001
-0.051481374 0.24380802 1.108
-0.045364868 0.24226771 1.1010001
-0.043434449 0.24226771 1.1010001
-0.041240152 0.24072741 1.0940001
-0.039178234 0.23984723 1.09
-0.0372671 0.23984723 1.09
-0.035355967 0.23984723 1.09
-0.033352785 0.23918711 1.087
-0.031446911 0.23918711 1.087
-0.029459506 0.23852697 1.0840001
-0.027558893 0.23852697 1.0840001
-0.02549259 0.23698667 1.077
-0.02360425 0.23698667 1.077
-0.021715909 0.23698667 1.077
-0.019827571 0.23698667 1.077
-0.00279569 0.23390606 1.0630001
-0.00093189668 0.23390606 1.0630001
0.00093189668 0.23390606 1.0630001
0.00279569 0.23390606 1.0630001
0.017606096 0.2325858 1.057
0.019459371 0.2325858 1.057
0.021252153 0.23192567 1.054
0.02494818 0.23192567 1.054
0.026796194 0.23192567 1.054
0.028644206 0.23192567 1.054
0.0303765 0.2310455 1.0500001
0.032217499 0.2310455 1.0500001
0.034188248 0.23192567 1.054
0.035899501 0.2310455 1.0500001
0.037740499 0.2310455 1.0500001
0.039468411 0.23038536 1.0470001
0.0451045 0.2310455 1.0500001
0.046811368 0.23038536 1.0470001
0.048647109 0.23038536 1.0470001
0.050338201 0.22972524 1.044
0.052168678 0.22972524 1.044
0.054154329 0.23038536 1.0470001
0.05599007 0.23038536 1.0470001
0.057825811 0.23038536 1.0470001
0.059490599 0.22972524 1.044
0.06114487 0.22906511 1.041
0.062970087 0.22906511 1.041
0.064795308 0.22906511 1.041
0.066620529 0.22906511 1.041
0.068248503 0.22840498 1.0380001
0.070068456 0.22840498 1.0380001
0.071888417 0.22840498 1.0380001
0.073424339 0.2275248 1.034
0.075237289 0.2275248 1.034
0.077050231 0.2275248 1.034
0.078634366 0.22686468 1.031
0.080442056 0.22686468 1.031
0.082249746 0.22686468 1.031
0.084057428 0.22686468 1.031
0.085865118 0.22686468 1.031
0.0876728 0.22686468 1.031
0.089220122 0.22620454 1.028
0.091022544 0.22620454 1.028
0.092824973 0.22620454 1.028
0.094627403 0.22620454 1.028
0.096148416 0.22554441 1.0250001
0.097945586 0.22554441 1.0250001
0.099450819 0.22488429 1.0220001
0.10124273 0.22488429 1.0220001
0.10273218 0.22422415 1.0190001
0.10421112 0.22356403 1.016
0.1059925 0.22356403 1.016
0.10777389 0.22356403 1.016
0.10923179 0.22290389 1.013
0.11100791 0.22290389 1.013
0.11278404 0.22290389 1.013
0.11456017 0.22290389 1.013
0.11668082 0.22356403 1.016
0.11916179 0.22488429 1.0220001
0.1209537 0.22488429 1.0220001
0.12202498 0.22356403 1.016
0.12270966 0.22158363 1.0070001
0.1248461 0.22224377 1.01
0.12661697 0.22224377 1.01
0.12838784 0.22224377 1.01
0.1305453 0.22290389 1.013
0.13232143 0.22290389 1.013
0.13409756 0.22290389 1.013
0.13587369 0.22290389 1.013
0.13805747 0.22356403 1.016
0.13942595 0.22290389 1.013
0.14162023 0.22356403 1.016
0.14170791 0.2209235 1.0040001
0.14346825 0.2209235 1.0040001
0.14276955 0.21718277 0.98700005
0.14450009 0.21718277 0.98700005
0.14623062 0.21718277 0.98700005
0.14751144 0.21652263 0.98400003
0.14923672 0.21652263 0.98400003
0.15357009 0.22026338 1.001
0.15532517 0.22026338 1.001
0.15755102 0.2209235 1.0040001
0.15883534 0.22026338 1.001
0.16059043 0.22026338 1.001
0.16234551 0.22026338 1.001
0.1641006 0.22026338 1.001
0.16535862 0.21960324 0.99800003
0.16710845 0.21960324 0.99800003
0.16784309 0.21828298 0.99200004
0.1695824 0.21828298 0.99200004
0.16942197 0.21586251 0.98100007
0.17114198 0.21586251 0.98100007
0.17532896 0.21894312 0.99500006
0.17707351 0.21894312 0.99500006
0.17881808 0.21894312 0.99500006
0.18056265 0.21894312 0.99500006
0.18230721 0.21894312 0.99500006
0.18405178 0.21894312 0.99500006
0.18579635 0.21894312 0.99500006
0.18810636 0.21960324 0.99800003
0.18985619 0.21960324 0.99800003
0.19160601 0.21960324 0.99800003
0.19277461 0.21894312 0.99500006
0.1939327 0.21828298 0.99200004
0.19567201 0.21828298 0.99200004
0.1968143 0.21762286 0.98900002
0.19915061 0.21828298 0.99200004
0.20028239 0.21762286 0.98900002
0.20160791 0.21718277 0.98700005
0.20375048 0.21762286 0.98900002
0.20506899 0.21718277 0.98700005
