# .PCD v0.7 - Point Cloud Data file format
VERSION 0.7
FIELDS x y z
SIZE 4 4 4
TYPE F F F
COUNT 1 1 1
WIDTH 1536
HEIGHT 1
VIEWPOINT 0 0 0 1 0 0 0
POINTS 1536
DATA ascii
0.36550689 -0.19662581 1.376
0.36497825 -0.19505395 1.365
0.36737156 -0.19505395 1.365
0.36813951 -0.19419657 1.3590001
0.37052229 -0.19419657 1.3590001
0.37290508 -0.19419657 1.3590001
0.37528786 -0.19419657 1.3590001
0.37767062 -0.19419657 1.3590001
0.3800534 -0.19419657 1.3590001
0.38102913 -0.19348209 1.3540001
0.38340315 -0.19348209 1.3540001
0.38435259 -0.19276761 1.3490001
0.38671783 -0.19276761 1.3490001
0.38908309 -0.19276761 1.3490001
0.38970727 -0.19191022 1.3430001
0.39206198 -0.19191022 1.3430001
0.39441672 -0.19191022 1.3430001
0.39529425 -0.19119574 1.3380001
0.39764023 -0.19119574 1.3380001
0.39998618 -0.19119574 1.3380001
0.40233213 -0.19119574 1.3380001
0.40467811 -0.19119574 1.3380001
0.40550303 -0.19048126 1.3330001
0.40631044 -0.18976678 1.3280001
0.40863886 -0.18976678 1.3280001
0.40911052 -0.1889094 1.322
0.41142842 -0.1889094 1.322
0.41374633 -0.1889094 1.322
0.41606423 -0.1889094 1.322
0.41679975 -0.18819492 1.317
0.42070004 -0.1889094 1.322
0.42141804 -0.18819492 1.317
0.42372718 -0.18819492 1.317
0.42603633 -0.18819492 1.317
0.42834547 -0.18819492 1.317
0.42901963 -0.18748042 1.312
0.43296376 -0.18819492 1.317
0.43362036 -0.18748042 1.312
0.43425947 -0.18676594 1.307
0.43655106 -0.18676594 1.307
0.28647977 -0.20141153 1.427
0.28898177 -0.20141153 1.427
0.29148379 -0.20141153 1.427
0.29398578 -0.20141153 1.427
0.29524118 -0.20056468 1.4210001
0.29773265 -0.20056468 1.4210001
0.29895648 -0.19971782 1.4150001
0.30143744 -0.19971782 1.4150001
0.30284449 -0.1990121 1.4100001
0.30531669 -0.1990121 1.4100001
0.30778891 -0.1990121 1.4100001
0.30894083 -0.19816524 1.404
0.31273329 -0.1990121 1.4100001
0.31520548 -0.1990121 1.4100001
0.31632587 -0.19816524 1.404
0.31878754 -0.19816524 1.404
0.32124925 -0.19816524 1.404
0.32371092 -0.19816524 1.404
0.32477871 -0.19731838 1.3980001
0.32722986 -0.19731838 1.3980001
0.32826608 -0.19647151 1.3920001
0.33070672 -0.19647151 1.3920001
0.33195069 -0.19576581 1.3870001
0.33438259 -0.19576581 1.3870001
0.33681446 -0.19576581 1.3870001
0.33924633 -0.19576581 1.3870001
0.3416782 -0.19576581 1.3870001
0.34411007 -0.19576581 1.3870001
0.34504285 -0.19491895 1.381
0.3474642 -0.19491895 1.381
0.34988555 -0.19491895 1.381
0.3523069 -0.19491895 1.381
0.35472825 -0.19491895 1.381
0.35585654 -0.19421323 1.376
0.35826913 -0.19421323 1.376
0.36068171 -0.19421323 1.376
0.3630943 -0.19421323 1.376
0.36391309 -0.19336636 1.3700001
0.36497825 -0.19266064 1.365
0.36737156 -0.19266064 1.365
0.36813951 -0.19181378 1.3590001
0.37052229 -0.19181378 1.3590001
0.37290508 -0.19181378 1.3590001
0.37528786 -0.19181378 1.3590001
0.37767062 -0.19181378 1.3590001
0.3800534 -0.19181378 1.3590001
0.38102913 -0.19110808 1.3540001
0.38340315 -0.19110808 1.3540001
0.38264307 -0.1895555 1.3430001
0.38499781 -0.1895555 1.3430001
0.38908309 -0.19040236 1.3490001
0.38970727 -0.1895555 1.3430001
0.39206198 -0.1895555 1.3430001
0.3929483 -0.18884978 1.3380001
0.39529425 -0.18884978 1.3380001
0.39615425 -0.18814406 1.3330001
0.39849147 -0.18814406 1.3330001
0.40082866 -0.18814406 1.3330001
0.40316585 -0.18814406 1.3330001
0.40550303 -0.18814406 1.3330001
0.40631044 -0.18743834 1.3280001
0.40863886 -0.18743834 1.3280001
0.40911052 -0.18659149 1.322
0.41142842 -0.18659149 1.322
0.41374633 -0.18659149 1.322
0.41606423 -0.18659149 1.322
0.42141804 -0.18588577 1.317
0.42372718 -0.18588577 1.317
0.42603633 -0.18588577 1.317
0.42834547 -0.18588577 1.317
0.26595086 -0.19486722 1.3980001
0.27281779 -0.19807319 1.4210001
0.27530926 -0.19807319 1.4210001
0.27780077 -0.19807319 1.4210001
0.28147575 -0.19890954 1.427
0.28397775 -0.19890954 1.427
0.28647977 -0.19890954 1.427
0.28898177 -0.19890954 1.427
0.29148379 -0.19890954 1.427
0.29274967 -0.19807319 1.4210001
0.29524118 -0.19807319 1.4210001
0.29773265 -0.19807319 1.4210001
0.29895648 -0.19723685 1.4150001
0.30143744 -0.19723685 1.4150001
0.30284449 -0.19653989 1.4100001
0.30531669 -0.19653989 1.4100001
0.30647916 -0.19570357 1.404
0.30894083 -0.19570357 1.404
0.31273329 -0.19653989 1.4100001
0.31520548 -0.19653989 1.4100001
0.31632587 -0.19570357 1.404
0.31878754 -0.19570357 1.404
0.32124925 -0.19570357 1.404
0.32232752 -0.19486722 1.3980001
0.32477871 -0.19486722 1.3980001
0.32722986 -0.19486722 1.3980001
0.32826608 -0.19403088 1.3920001
0.33070672 -0.19403088 1.3920001
0.33314735 -0.19403088 1.3920001
0.33438259 -0.19333392 1.3870001
0.33681446 -0.19333392 1.3870001
0.33924633 -0.19333392 1.3870001
0.3416782 -0.19333392 1.3870001
0.34411007 -0.19333392 1.3870001
0.34654194 -0.19333392 1.3870001
0.3474642 -0.1924976 1.381
0.34988555 -0.1924976 1.381
0.3523069 -0.1924976 1.381
0.35472825 -0.1924976 1.381
0.35585654 -0.19180064 1.376
0.35826913 -0.19180064 1.376
0.36068171 -0.19180064 1.376
0.36151102 -0.1909643 1.3700001
0.36391309 -0.1909643 1.3700001
0.36497825 -0.19026735 1.365
0.36737156 -0.19026735 1.365
0.36813951 -0.18943101 1.3590001
0.37052229 -0.18943101 1.3590001
0.37455145 -0.19026735 1.365
0.37528786 -0.18943101 1.3590001
0.37767062 -0.18943101 1.3590001
0.3800534 -0.18943101 1.3590001
0.38102913 -0.18873405 1.3540001
0.38340315 -0.18873405 1.3540001
0.38264307 -0.18720077 1.3430001
0.38499781 -0.18720077 1.3430001
0.38908309 -0.18803711 1.3490001
0.38970727 -0.18720077 1.3430001
0.39206198 -0.18720077 1.3430001
0.3929483 -0.18650381 1.3380001
0.39529425 -0.18650381 1.3380001
0.39615425 -0.18580687 1.3330001
0.39998618 -0.18650381 1.3380001
0.40082866 -0.18580687 1.3330001
0.40316585 -0.18580687 1.3330001
0.40550303 -0.18580687 1.3330001
0.40631044 -0.18510991 1.3280001
0.40863886 -0.18510991 1.3280001
0.41096729 -0.18510991 1.3280001
0.41142842 -0.18427359 1.322
0.41374633 -0.18427359 1.322
0.41606423 -0.18427359 1.322
0.41679975 -0.18357663 1.317
0.4191089 -0.18357663 1.317
0.42141804 -0.18357663 1.317
0.42372718 -0.18357663 1.317
0.42603633 -0.18357663 1.317
0.42834547 -0.18357663 1.317
0.42901963 -0.18287967 1.312
0.43132001 -0.18287967 1.312
0.27166584 -0.19475588 1.4150001
0.27780077 -0.1955817 1.4210001
0.28147575 -0.19640753 1.427
0.28397775 -0.19640753 1.427
0.28647977 -0.19640753 1.427
0.28898177 -0.19640753 1.427
0.29148379 -0.19640753 1.427
0.29274967 -0.1955817 1.4210001
0.29524118 -0.1955817 1.4210001
0.2964755 -0.19475588 1.4150001
0.29895648 -0.19475588 1.4150001
0.30143744 -0.19475588 1.4150001
0.30284449 -0.1940677 1.4100001
0.30401748 -0.19324188 1.404
0.30647916 -0.19324188 1.404
0.30894083 -0.19324188 1.404
0.31273329 -0.1940677 1.4100001
0.31520548 -0.1940677 1.4100001
0.31632587 -0.19324188 1.404
0.31878754 -0.19324188 1.404
0.32124925 -0.19324188 1.404
0.32232752 -0.19241606 1.3980001
0.32477871 -0.19241606 1.3980001
0.32722986 -0.19241606 1.3980001
0.32826608 -0.19159023 1.3920001
0.33070672 -0.19159023 1.3920001
0.33314735 -0.19159023 1.3920001
0.33558801 -0.19159023 1.3920001
0.33681446 -0.19090205 1.3870001
0.33924633 -0.19090205 1.3870001
0.3416782 -0.19090205 1.3870001
0.34411007 -0.19090205 1.3870001
0.34504285 -0.19007623 1.381
0.3474642 -0.19007623 1.381
0.34988555 -0.19007623 1.381
0.3523069 -0.19007623 1.381
0.35472825 -0.19007623 1.381
0.35585654 -0.18938805 1.376
0.35826913 -0.18938805 1.376
0.36068171 -0.18938805 1.376
0.36151102 -0.18856223 1.3700001
0.36258495 -0.18787405 1.365
0.36497825 -0.18787405 1.365
0.36575672 -0.18704823 1.3590001
0.36813951 -0.18704823 1.3590001
0.37052229 -0.18704823 1.3590001
0.37290508 -0.18704823 1.3590001
0.37528786 -0.18704823 1.3590001
0.37767062 -0.18704823 1.3590001
0.3800534 -0.18704823 1.3590001
0.38102913 -0.18636005 1.3540001
0.38340315 -0.18636005 1.3540001
0.38435259 -0.18567187 1.3490001
0.38499781 -0.18484604 1.3430001
0.38908309 -0.18567187 1.3490001
0.38970727 -0.18484604 1.3430001
0.39206198 -0.18484604 1.3430001
0.3929483 -0.18415786 1.3380001
0.39529425 -0.18415786 1.3380001
0.39764023 -0.18415786 1.3380001
0.39998618 -0.18415786 1.3380001
0.40082866 -0.18346968 1.3330001
0.40316585 -0.18346968 1.3330001
0.40550303 -0.18346968 1.3330001
0.40631044 -0.18278149 1.3280001
0.40863886 -0.18278149 1.3280001
0.41096729 -0.18278149 1.3280001
0.41142842 -0.18195567 1.322
0.41374633 -0.18195567 1.322
0.41606423 -0.18195567 1.322
0.41838214 -0.18195567 1.322
0.4191089 -0.18126749 1.317
0.42141804 -0.18126749 1.317
0.42372718 -0.18126749 1.317
0.27512166 -0.19472082 1.4330001
0.2776342 -0.19472082 1.4330001
0.27897373 -0.19390552 1.427
0.28147575 -0.19390552 1.427
0.28397775 -0.19390552 1.427
0.28647977 -0.19390552 1.427
0.2877667 -0.19309022 1.4210001
0.2902582 -0.19309022 1.4210001
0.29274967 -0.19309022 1.4210001
0.29524118 -0.19309022 1.4210001
0.29542789 -0.19159549 1.4100001
0.29790011 -0.19159549 1.4100001
0.3003723 -0.19159549 1.4100001
0.30155581 -0.19078019 1.404
0.30401748 -0.19078019 1.404
0.30647916 -0.19078019 1.404
0.30894083 -0.19078019 1.404
0.31273329 -0.19159549 1.4100001
0.3138642 -0.19078019 1.404
0.31632587 -0.19078019 1.404
0.31878754 -0.19078019 1.404
0.32124925 -0.19078019 1.404
0.32232752 -0.18996491 1.3980001
0.32338479 -0.1891496 1.3920001
0.32582545 -0.1891496 1.3920001
0.32826608 -0.1891496 1.3920001
0.33070672 -0.1891496 1.3920001
0.33195069 -0.18847018 1.3870001
0.33438259 -0.18847018 1.3870001
0.33681446 -0.18847018 1.3870001
0.33924633 -0.18847018 1.3870001
0.3416782 -0.18847018 1.3870001
0.34411007 -0.18847018 1.3870001
0.34504285 -0.18765488 1.381
0.3474642 -0.18765488 1.381
0.34988555 -0.18765488 1.381
0.3523069 -0.18765488 1.381
0.35472825 -0.18765488 1.381
0.35585654 -0.18697546 1.376
0.35826913 -0.18697546 1.376
0.35910895 -0.18616016 1.3700001
0.36151102 -0.18616016 1.3700001
0.36258495 -0.18548074 1.365
0.36497825 -0.18548074 1.365
0.36575672 -0.18466544 1.3590001
0.36813951 -0.18466544 1.3590001
0.37052229 -0.18466544 1.3590001
0.37290508 -0.18466544 1.3590001
0.37528786 -0.18466544 1.3590001
0.37767062 -0.18466544 1.3590001
0.3800534 -0.18466544 1.3590001
0.38102913 -0.18398604 1.3540001
0.38340315 -0.18398604 1.3540001
0.38435259 -0.18330662 1.3490001
0.38499781 -0.18249132 1.3430001
0.38735253 -0.18249132 1.3430001
0.38970727 -0.18249132 1.3430001
0.39206198 -0.18249132 1.3430001
0.3929483 -0.1818119 1.3380001
0.39529425 -0.1818119 1.3380001
0.39764023 -0.1818119 1.3380001
0.39998618 -0.1818119 1.3380001
0.40082866 -0.18113248 1.3330001
0.40316585 -0.18113248 1.3330001
0.40550303 -0.18113248 1.3330001
0.40631044 -0.18045306 1.3280001
0.40863886 -0.18045306 1.3280001
0.41096729 -0.18045306 1.3280001
0.41142842 -0.17963776 1.322
0.41374633 -0.17963776 1.322
0.41606423 -0.17963776 1.322
0.41838214 -0.17963776 1.322
0.4191089 -0.17895834 1.317
0.42141804 -0.17895834 1.317
0.42372718 -0.17895834 1.317
0.42603633 -0.17895834 1.317
0.42671925 -0.17827894 1.312
0.42738464 -0.17759952 1.307
0.27375057 -0.19301307 1.439
0.27512166 -0.19220829 1.4330001
0.27897373 -0.19140351 1.427
0.28397775 -0.19140351 1.427
0.28647977 -0.19140351 1.427
0.2877667 -0.19059873 1.4210001
0.2902582 -0.19059873 1.4210001
0.29274967 -0.19059873 1.4210001
0.29542789 -0.1891233 1.4100001
0.29790011 -0.1891233 1.4100001
0.3003723 -0.1891233 1.4100001
0.30155581 -0.18831852 1.404
0.30401748 -0.18831852 1.404
0.30647916 -0.18831852 1.404
0.30894083 -0.18831852 1.404
0.31273329 -0.1891233 1.4100001
0.3138642 -0.18831852 1.404
0.31632587 -0.18831852 1.404
0.31878754 -0.18831852 1.404
0.32124925 -0.18831852 1.404
0.32232752 -0.18751374 1.3980001
0.32477871 -0.18751374 1.3980001
0.32722986 -0.18751374 1.3980001
0.32826608 -0.18670896 1.3920001
0.33070672 -0.18670896 1.3920001
0.33314735 -0.18670896 1.3920001
0.33438259 -0.18603832 1.3870001
0.33681446 -0.18603832 1.3870001
0.33924633 -0.18603832 1.3870001
0.3416782 -0.18603832 1.3870001
0.34411007 -0.18603832 1.3870001
0.34504285 -0.18523353 1.381
0.3474642 -0.18523353 1.381
0.3523069 -0.18523353 1.381
0.35472825 -0.18523353 1.381
0.3571496 -0.18523353 1.381
0.35826913 -0.18456288 1.376
0.36068171 -0.18456288 1.376
0.36151102 -0.18375809 1.3700001
0.36258495 -0.18308745 1.365
0.36497825 -0.18308745 1.365
0.36575672 -0.18228267 1.3590001
0.36813951 -0.18228267 1.3590001
0.37052229 -0.18228267 1.3590001
0.37290508 -0.18228267 1.3590001
0.37528786 -0.18228267 1.3590001
0.37767062 -0.18228267 1.3590001
0.3800534 -0.18228267 1.3590001
0.38102913 -0.18161201 1.3540001
0.38340315 -0.18161201 1.3540001
0.38435259 -0.18094137 1.3490001
0.38499781 -0.18013659 1.3430001
0.38735253 -0.18013659 1.3430001
0.38970727 -0.18013659 1.3430001
0.39206198 -0.18013659 1.3430001
0.3929483 -0.17946593 1.3380001
0.39529425 -0.17946593 1.3380001
0.39764023 -0.17946593 1.3380001
0.39998618 -0.17946593 1.3380001
0.40082866 -0.17879529 1.3330001
0.40316585 -0.17879529 1.3330001
0.40550303 -0.17879529 1.3330001
0.40784022 -0.17879529 1.3330001
0.40863886 -0.17812464 1.3280001
0.41096729 -0.17812464 1.3280001
0.41142842 -0.17731985 1.322
0.41374633 -0.17731985 1.322
0.41606423 -0.17731985 1.322
0.41838214 -0.17731985 1.322
0.4191089 -0.17664921 1.317
0.42141804 -0.17664921 1.317
0.42372718 -0.17664921 1.317
0.42603633 -0.17664921 1.317
0.42671925 -0.17597856 1.312
0.42738464 -0.17530791 1.307
0.43132001 -0.17597856 1.312
0.43425947 -0.17530791 1.307
0.43488103 -0.17463726 1.302
0.27375057 -0.19049002 1.439
0.27512166 -0.18969576 1.4330001
0.27897373 -0.1889015 1.427
0.28147575 -0.1889015 1.427
0.28278375 -0.18810724 1.4210001
0.28527522 -0.18810724 1.4210001
0.2877667 -0.18810724 1.4210001
0.2902582 -0.18810724 1.4210001
0.29151359 -0.18731298 1.4150001
0.2929557 -0.1866511 1.4100001
0.29542789 -0.1866511 1.4100001
0.29790011 -0.1866511 1.4100001
0.29909411 -0.18585683 1.404
0.30155581 -0.18585683 1.404
0.30401748 -0.18585683 1.404
0.30647916 -0.18585683 1.404
0.30894083 -0.18585683 1.404
0.31140253 -0.18585683 1.404
0.3138642 -0.18585683 1.404
0.31632587 -0.18585683 1.404
0.31878754 -0.18585683 1.404
0.32124925 -0.18585683 1.404
0.32232752 -0.18506257 1.3980001
0.32477871 -0.18506257 1.3980001
0.32722986 -0.18506257 1.3980001
0.32826608 -0.18426833 1.3920001
0.33070672 -0.18426833 1.3920001
0.33314735 -0.18426833 1.3920001
0.33558801 -0.18426833 1.3920001
0.33681446 -0.18360643 1.3870001
0.33924633 -0.18360643 1.3870001
0.3416782 -0.18360643 1.3870001
0.34262151 -0.18281217 1.381
0.34504285 -0.18281217 1.381
0.3474642 -0.18281217 1.381
0.34988555 -0.18281217 1.381
0.3523069 -0.18281217 1.381
0.35472825 -0.18281217 1.381
0.35585654 -0.18215029 1.376
0.35826913 -0.18215029 1.376
0.35910895 -0.18135603 1.3700001
0.36019164 -0.18069415 1.365
0.36258495 -0.18069415 1.365
0.36337394 -0.17989989 1.3590001
0.36575672 -0.17989989 1.3590001
0.36813951 -0.17989989 1.3590001
0.37052229 -0.17989989 1.3590001
0.37290508 -0.17989989 1.3590001
0.37528786 -0.17989989 1.3590001
0.37767062 -0.17989989 1.3590001
0.3800534 -0.17989989 1.3590001
0.38243619 -0.17989989 1.3590001
0.38340315 -0.17923801 1.3540001
0.38577718 -0.17923801 1.3540001
0.38671783 -0.17857613 1.3490001
0.38735253 -0.17778187 1.3430001
0.38970727 -0.17778187 1.3430001
0.39060235 -0.17711999 1.3380001
0.3929483 -0.17711999 1.3380001
0.39529425 -0.17711999 1.3380001
0.39764023 -0.17711999 1.3380001
0.39998618 -0.17711999 1.3380001
0.40082866 -0.17645809 1.3330001
0.40316585 -0.17645809 1.3330001
0.40550303 -0.17645809 1.3330001
0.40784022 -0.17645809 1.3330001
0.40863886 -0.17579621 1.3280001
0.41096729 -0.17579621 1.3280001
0.41329572 -0.17579621 1.3280001
0.41374633 -0.17500195 1.322
0.41606423 -0.17500195 1.322
0.41838214 -0.17500195 1.322
0.4191089 -0.17434007 1.317
0.42141804 -0.17434007 1.317
0.42372718 -0.17434007 1.317
0.42603633 -0.17434007 1.317
0.42671925 -0.17367819 1.312
0.42901963 -0.17367819 1.312
0.43132001 -0.17367819 1.312
0.43196785 -0.17301629 1.307
0.43425947 -0.17301629 1.307
0.43488103 -0.17235442 1.302
0.43548504 -0.17169254 1.2970001
0.27122751 -0.18796697 1.439
0.27375057 -0.18796697 1.439
0.27512166 -0.18718323 1.4330001
0.2776342 -0.18718323 1.4330001
0.27897373 -0.18639949 1.427
0.28147575 -0.18639949 1.427
0.28278375 -0.18561575 1.4210001
0.28527522 -0.18561575 1.4210001
0.28655165 -0.18483202 1.4150001
0.2902582 -0.18561575 1.4210001
0.29151359 -0.18483202 1.4150001
0.2929557 -0.1841789 1.4100001
0.29542789 -0.1841789 1.4100001
0.29663244 -0.18339516 1.404
0.29909411 -0.18339516 1.404
0.30155581 -0.18339516 1.404
0.30401748 -0.18339516 1.404
0.30647916 -0.18339516 1.404
0.30894083 -0.18339516 1.404
0.31140253 -0.18339516 1.404
0.3138642 -0.18339516 1.404
0.31632587 -0.18339516 1.404
0.31878754 -0.18339516 1.404
0.32124925 -0.18339516 1.404
0.32232752 -0.18261142 1.3980001
0.32477871 -0.18261142 1.3980001
0.32722986 -0.18261142 1.3980001
0.32826608 -0.18182768 1.3920001
0.33070672 -0.18182768 1.3920001
0.33314735 -0.18182768 1.3920001
0.33558801 -0.18182768 1.3920001
0.33681446 -0.18117456 1.3870001
0.33924633 -0.18117456 1.3870001
0.34020016 -0.18039082 1.381
0.34262151 -0.18039082 1.381
0.34504285 -0.18039082 1.381
0.3474642 -0.18039082 1.381
0.34988555 -0.18039082 1.381
0.3523069 -0.18039082 1.381
0.35344395 -0.1797377 1.376
0.35585654 -0.1797377 1.376
0.35826913 -0.1797377 1.376
0.35910895 -0.17895396 1.3700001
0.36019164 -0.17830084 1.365
0.36258495 -0.17830084 1.365
0.36497825 -0.17830084 1.365
0.36575672 -0.17751712 1.3590001
0.36813951 -0.17751712 1.3590001
0.37052229 -0.17751712 1.3590001
0.37290508 -0.17751712 1.3590001
0.37528786 -0.17751712 1.3590001
0.37767062 -0.17751712 1.3590001
0.3800534 -0.17751712 1.3590001
0.38243619 -0.17751712 1.3590001
0.38340315 -0.176864 1.3540001
0.38435259 -0.17621088 1.3490001
0.38499781 -0.17542714 1.3430001
0.38735253 -0.17542714 1.3430001
0.38825637 -0.17477402 1.3380001
0.39060235 -0.17477402 1.3380001
0.3929483 -0.17477402 1.3380001
0.39529425 -0.17477402 1.3380001
0.39764023 -0.17477402 1.3380001
0.39998618 -0.17477402 1.3380001
0.40082866 -0.1741209 1.3330001
0.40316585 -0.1741209 1.3330001
0.40550303 -0.1741209 1.3330001
0.40784022 -0.1741209 1.3330001
0.40863886 -0.17346779 1.3280001
0.41096729 -0.17346779 1.3280001
0.41329572 -0.17346779 1.3280001
0.41562417 -0.17346779 1.3280001
0.41606423 -0.17268404 1.322
0.41838214 -0.17268404 1.322
0.4191089 -0.17203093 1.317
0.42141804 -0.17203093 1.317
0.42211851 -0.17137781 1.312
0.42441887 -0.17137781 1.312
0.42671925 -0.17137781 1.312
0.42738464 -0.17072469 1.307
0.43132001 -0.17137781 1.312
0.43196785 -0.17072469 1.307
0.43425947 -0.17072469 1.307
0.26870447 -0.18544392 1.439
0.27122751 -0.18544392 1.439
0.27375057 -0.18544392 1.439
0.27512166 -0.1846707 1.4330001
0.2776342 -0.1846707 1.4330001
0.27897373 -0.1838975 1.427
0.28147575 -0.1838975 1.427
0.28278375 -0.18312427 1.4210001
0.28527522 -0.18312427 1.4210001
0.2877667 -0.18312427 1.4210001
0.2902582 -0.18312427 1.4210001
0.29151359 -0.18235105 1.4150001
0.2929557 -0.1817067 1.4100001
0.29542789 -0.1817067 1.4100001
0.29663244 -0.18093348 1.404
0.29909411 -0.18093348 1.404
0.30155581 -0.18093348 1.404
0.30401748 -0.18093348 1.404
0.30647916 -0.18093348 1.404
0.30894083 -0.18093348 1.404
0.31140253 -0.18093348 1.404
0.3138642 -0.18093348 1.404
0.31632587 -0.18093348 1.404
0.31878754 -0.18093348 1.404
0.32124925 -0.18093348 1.404
0.32232752 -0.18016025 1.3980001
0.32477871 -0.18016025 1.3980001
0.32722986 -0.18016025 1.3980001
0.32826608 -0.17938703 1.3920001
0.33070672 -0.17938703 1.3920001
0.33314735 -0.17938703 1.3920001
0.33438259 -0.17874269 1.3870001
0.33924633 -0.17874269 1.3870001
0.34020016 -0.17796947 1.381
0.34262151 -0.17796947 1.381
0.34504285 -0.17796947 1.381
0.3474642 -0.17796947 1.381
0.34988555 -0.17796947 1.381
0.35103136 -0.17732511 1.376
0.35344395 -0.17732511 1.376
0.35585654 -0.17732511 1.376
0.35670689 -0.17655189 1.3700001
0.35910895 -0.17655189 1.3700001
0.36019164 -0.17590755 1.365
0.36258495 -0.17590755 1.365
0.36337394 -0.17513433 1.3590001
0.36575672 -0.17513433 1.3590001
0.36813951 -0.17513433 1.3590001
0.37052229 -0.17513433 1.3590001
0.37290508 -0.17513433 1.3590001
0.37528786 -0.17513433 1.3590001
0.37767062 -0.17513433 1.3590001
0.3800534 -0.17513433 1.3590001
0.38243619 -0.17513433 1.3590001
0.38481897 -0.17513433 1.3590001
0.38577718 -0.17448997 1.3540001
0.38499781 -0.17307241 1.3430001
0.38735253 -0.17307241 1.3430001
0.38970727 -0.17307241 1.3430001
0.39060235 -0.17242806 1.3380001
0.3929483 -0.17242806 1.3380001
0.39529425 -0.17242806 1.3380001
0.39764023 -0.17242806 1.3380001
0.39998618 -0.17242806 1.3380001
0.40233213 -0.17242806 1.3380001
0.40467811 -0.17242806 1.3380001
0.40550303 -0.17178372 1.3330001
0.40784022 -0.17178372 1.3330001
0.40863886 -0.17113936 1.3280001
0.41096729 -0.17113936 1.3280001
0.41329572 -0.17113936 1.3280001
0.41562417 -0.17113936 1.3280001
0.41606423 -0.17036614 1.322
0.41838214 -0.17036614 1.322
0.4191089 -0.16972178 1.317
0.42141804 -0.16972178 1.317
0.42211851 -0.16907744 1.312
0.42441887 -0.16907744 1.312
0.42509302 -0.16843309 1.307
0.42738464 -0.16843309 1.307
0.42967623 -0.16843309 1.307
0.43196785 -0.16843309 1.307
0.43425947 -0.16843309 1.307
0.43488103 -0.16778874 1.302
0.43548504 -0.16714439 1.2970001
0.4377591 -0.16714439 1.2970001
0.26729128 -0.18368359 1.4450001
0.26982486 -0.18368359 1.4450001
0.27122751 -0.18292089 1.439
0.27260914 -0.18215819 1.4330001
0.27512166 -0.18215819 1.4330001
0.27647173 -0.18139549 1.427
0.27897373 -0.18139549 1.427
0.28147575 -0.18139549 1.427
0.28278375 -0.18063278 1.4210001
0.28527522 -0.18063278 1.4210001
0.2877667 -0.18063278 1.4210001
0.28903261 -0.17987008 1.4150001
0.2904835 -0.1792345 1.4100001
0.2929557 -0.1792345 1.4100001
0.29542789 -0.1792345 1.4100001
0.29663244 -0.1784718 1.404
0.29909411 -0.1784718 1.404
0.30155581 -0.1784718 1.404
0.30401748 -0.1784718 1.404
0.30647916 -0.1784718 1.404
0.30894083 -0.1784718 1.404
0.31140253 -0.1784718 1.404
0.3138642 -0.1784718 1.404
0.31632587 -0.1784718 1.404
0.31878754 -0.1784718 1.404
0.31987637 -0.1777091 1.3980001
0.32232752 -0.1777091 1.3980001
0.32477871 -0.1777091 1.3980001
0.32722986 -0.1777091 1.3980001
0.32826608 -0.1769464 1.3920001
0.32951882 -0.17631082 1.3870001
0.33195069 -0.17631082 1.3870001
0.33438259 -0.17631082 1.3870001
0.33681446 -0.17631082 1.3870001
0.33777878 -0.17554812 1.381
0.34020016 -0.17554812 1.381
0.34262151 -0.17554812 1.381
0.3474642 -0.17554812 1.381
0.34988555 -0.17554812 1.381
0.35103136 -0.17491253 1.376
0.35344395 -0.17491253 1.376
0.35430482 -0.17414983 1.3700001
0.35670689 -0.17414983 1.3700001
0.35779834 -0.17351425 1.365
0.36019164 -0.17351425 1.365
0.36258495 -0.17351425 1.365
0.36337394 -0.17275155 1.3590001
0.36575672 -0.17275155 1.3590001
0.36813951 -0.17275155 1.3590001
0.37052229 -0.17275155 1.3590001
0.37290508 -0.17275155 1.3590001
0.37528786 -0.17275155 1.3590001
0.37767062 -0.17275155 1.3590001
0.3800534 -0.17275155 1.3590001
0.38102913 -0.17211597 1.3540001
0.38340315 -0.17211597 1.3540001
0.38435259 -0.17148039 1.3490001
0.38671783 -0.17148039 1.3490001
0.38735253 -0.17071769 1.3430001
0.38970727 -0.17071769 1.3430001
0.39060235 -0.17008209 1.3380001
0.3929483 -0.17008209 1.3380001
0.39529425 -0.17008209 1.3380001
0.39615425 -0.16944651 1.3330001
0.39998618 -0.17008209 1.3380001
0.40082866 -0.16944651 1.3330001
0.40316585 -0.16944651 1.3330001
0.40550303 -0.16944651 1.3330001
0.40784022 -0.16944651 1.3330001
0.41017744 -0.16944651 1.3330001
0.41329572 -0.16881093 1.3280001
0.41562417 -0.16881093 1.3280001
0.41606423 -0.16804823 1.322
0.41838214 -0.16804823 1.322
0.4191089 -0.16741265 1.317
0.41981813 -0.16677706 1.312
0.42211851 -0.16677706 1.312
0.42441887 -0.16677706 1.312
0.42509302 -0.16614148 1.307
0.42738464 -0.16614148 1.307
0.42967623 -0.16614148 1.307
0.43196785 -0.16614148 1.307
0.43425947 -0.16614148 1.307
0.43488103 -0.1655059 1.302
0.43716386 -0.1655059 1.302
0.4377591 -0.16487032 1.2970001
0.4400332 -0.16487032 1.2970001
0.26729128 -0.18115002 1.4450001
0.26870447 -0.18039784 1.439
0.2700966 -0.17964566 1.4330001
0.27260914 -0.17964566 1.4330001
0.27396974 -0.17889348 1.427
0.27647173 -0.17889348 1.427
0.27780077 -0.1781413 1.4210001
0.28029224 -0.1781413 1.4210001
0.28278375 -0.1781413 1.4210001
0.28527522 -0.1781413 1.4210001
0.28655165 -0.17738912 1.4150001
0.28801131 -0.1767623 1.4100001
0.2904835 -0.1767623 1.4100001
0.2929557 -0.1767623 1.4100001
0.29542789 -0.1767623 1.4100001
0.29663244 -0.17601012 1.404
0.29909411 -0.17601012 1.404
0.30155581 -0.17601012 1.404
0.30401748 -0.17601012 1.404
0.30762058 -0.17525794 1.3980001
0.31140253 -0.17601012 1.404
0.3138642 -0.17601012 1.404
0.31632587 -0.17601012 1.404
0.31878754 -0.17601012 1.404
0.31987637 -0.17525794 1.3980001
0.32232752 -0.17525794 1.3980001
0.32477871 -0.17525794 1.3980001
0.32582545 -0.17450576 1.3920001
0.32708696 -0.17387894 1.3870001
0.32951882 -0.17387894 1.3870001
0.33195069 -0.17387894 1.3870001
0.33438259 -0.17387894 1.3870001
0.33681446 -0.17387894 1.3870001
0.33777878 -0.17312676 1.381
0.34020016 -0.17312676 1.381
0.34262151 -0.17312676 1.381
0.34504285 -0.17312676 1.381
0.3474642 -0.17312676 1.381
0.34988555 -0.17312676 1.381
0.35103136 -0.17249994 1.376
0.35344395 -0.17249994 1.376
0.35430482 -0.17174776 1.3700001
0.35670689 -0.17174776 1.3700001
0.35779834 -0.17112094 1.365
0.36019164 -0.17112094 1.365
0.36258495 -0.17112094 1.365
0.36337394 -0.17036878 1.3590001
0.36575672 -0.17036878 1.3590001
0.36813951 -0.17036878 1.3590001
0.37052229 -0.17036878 1.3590001
0.37290508 -0.17036878 1.3590001
0.37390709 -0.16974196 1.3540001
0.37767062 -0.17036878 1.3590001
0.3800534 -0.17036878 1.3590001
0.38102913 -0.16974196 1.3540001
0.38340315 -0.16974196 1.3540001
0.38435259 -0.16911514 1.3490001
0.38671783 -0.16911514 1.3490001
0.38735253 -0.16836296 1.3430001
0.38970727 -0.16836296 1.3430001
0.39060235 -0.16773614 1.3380001
0.3929483 -0.16773614 1.3380001
0.39529425 -0.16773614 1.3380001
0.39615425 -0.16710933 1.3330001
0.39849147 -0.16710933 1.3330001
0.39932516 -0.16648251 1.3280001
0.40165359 -0.16648251 1.3280001
0.40398201 -0.16648251 1.3280001
0.40784022 -0.16710933 1.3330001
0.41017744 -0.16710933 1.3330001
0.41251463 -0.16710933 1.3330001
0.41329572 -0.16648251 1.3280001
0.41562417 -0.16648251 1.3280001
0.4179526 -0.16648251 1.3280001
0.41838214 -0.16573033 1.322
0.4191089 -0.16510351 1.317
0.41981813 -0.16447669 1.312
0.42211851 -0.16447669 1.312
0.42280143 -0.16384988 1.307
0.42509302 -0.16384988 1.307
0.42574966 -0.16322306 1.302
0.42967623 -0.16384988 1.307
0.43196785 -0.16384988 1.307
0.43425947 -0.16384988 1.307
0.43488103 -0.16322306 1.302
0.43716386 -0.16322306 1.302
0.43944669 -0.16322306 1.302
0.4400332 -0.16259624 1.2970001
0.44230726 -0.16259624 1.2970001
0.44149634 -0.16146797 1.2880001
0.44375464 -0.16146797 1.2880001
0.44601294 -0.16146797 1.2880001
0.45151314 -0.16021433 1.2780001
0.45375389 -0.16021433 1.2780001
0.26475772 -0.17861645 1.4450001
0.26618141 -0.17787479 1.439
0.26870447 -0.17787479 1.439
0.2700966 -0.17713313 1.4330001
0.27146772 -0.17639147 1.427
0.27396974 -0.17639147 1.427
0.27647173 -0.17639147 1.427
0.27780077 -0.17564981 1.4210001
0.28029224 -0.17564981 1.4210001
0.28278375 -0.17564981 1.4210001
0.28407067 -0.17490815 1.4150001
0.28655165 -0.17490815 1.4150001
0.28801131 -0.17429011 1.4100001
0.2904835 -0.17429011 1.4100001
0.2929557 -0.17429011 1.4100001
0.29417077 -0.17354845 1.404
0.29663244 -0.17354845 1.404
0.29909411 -0.17354845 1.404
0.30155581 -0.17354845 1.404
0.30401748 -0.17354845 1.404
0.30762058 -0.17280678 1.3980001
0.31140253 -0.17354845 1.404
0.3138642 -0.17354845 1.404
0.31632587 -0.17354845 1.404
0.31742522 -0.17280678 1.3980001
0.31987637 -0.17280678 1.3980001
0.32232752 -0.17280678 1.3980001
0.32477871 -0.17280678 1.3980001
0.32582545 -0.17206512 1.3920001
0.32708696 -0.17144707 1.3870001
0.32951882 -0.17144707 1.3870001
0.33195069 -0.17144707 1.3870001
0.33438259 -0.17144707 1.3870001
0.33681446 -0.17144707 1.3870001
0.33777878 -0.17070541 1.381
0.34020016 -0.17070541 1.381
0.34262151 -0.17070541 1.381
0.34504285 -0.17070541 1.381
0.3474642 -0.17070541 1.381
0.34861878 -0.17008735 1.376
0.35103136 -0.17008735 1.376
0.35344395 -0.17008735 1.376
0.35430482 -0.16934569 1.3700001
0.35670689 -0.16934569 1.3700001
0.35779834 -0.16872765 1.365
0.36019164 -0.16872765 1.365
0.36258495 -0.16872765 1.365
0.36497825 -0.16872765 1.365
0.36575672 -0.16798599 1.3590001
0.36813951 -0.16798599 1.3590001
0.37390709 -0.16736794 1.3540001
0.37767062 -0.16798599 1.3590001
0.3800534 -0.16798599 1.3590001
0.38102913 -0.16736794 1.3540001
0.38340315 -0.16736794 1.3540001
0.38577718 -0.16736794 1.3540001
0.38671783 -0.16674989 1.3490001
0.38908309 -0.16674989 1.3490001
0.38970727 -0.16600823 1.3430001
0.39529425 -0.16539018 1.3380001
0.39615425 -0.16477212 1.3330001
0.39849147 -0.16477212 1.3330001
0.39932516 -0.16415408 1.3280001
0.40165359 -0.16415408 1.3280001
0.40398201 -0.16415408 1.3280001
0.40631044 -0.16415408 1.3280001
0.40863886 -0.16415408 1.3280001
0.41096729 -0.16415408 1.3280001
0.41329572 -0.16415408 1.3280001
0.41374633 -0.16341242 1.322
0.41606423 -0.16341242 1.322
0.41679975 -0.16279437 1.317
0.4191089 -0.16279437 1.317
0.42141804 -0.16279437 1.317
0.42211851 -0.16217633 1.312
0.42441887 -0.16217633 1.312
0.42509302 -0.16155827 1.307
0.42574966 -0.16094021 1.302
0.42967623 -0.16155827 1.307
0.43196785 -0.16155827 1.307
0.43425947 -0.16155827 1.307
0.43488103 -0.16094021 1.302
0.43716386 -0.16094021 1.302
0.4377591 -0.16032217 1.2970001
0.4400332 -0.16032217 1.2970001
0.44060215 -0.15970412 1.2920001
0.44149634 -0.15920968 1.2880001
0.44375464 -0.15920968 1.2880001
0.44601294 -0.15920968 1.2880001
0.44827121 -0.15920968 1.2880001
0.44878057 -0.15859163 1.2830001
0.45103011 -0.15859163 1.2830001
0.26222414 -0.17608288 1.4450001
0.26475772 -0.17608288 1.4450001
0.26618141 -0.17535174 1.439
0.26870447 -0.17535174 1.439
0.2700966 -0.1746206 1.4330001
0.27146772 -0.17388946 1.427
0.27396974 -0.17388946 1.427
0.27647173 -0.17388946 1.427
0.27780077 -0.17315832 1.4210001
0.28029224 -0.17315832 1.4210001
0.28278375 -0.17315832 1.4210001
0.28407067 -0.17242718 1.4150001
0.28655165 -0.17242718 1.4150001
0.28903261 -0.17242718 1.4150001
0.2904835 -0.1718179 1.4100001
0.2929557 -0.1718179 1.4100001
0.29417077 -0.17108676 1.404
0.29663244 -0.17108676 1.404
0.29909411 -0.17108676 1.404
0.30155581 -0.17108676 1.404
0.30401748 -0.17108676 1.404
0.30894083 -0.17108676 1.404
0.31140253 -0.17108676 1.404
0.3138642 -0.17108676 1.404
0.31632587 -0.17108676 1.404
0.31742522 -0.17035562 1.3980001
0.31987637 -0.17035562 1.3980001
0.32232752 -0.17035562 1.3980001
0.32477871 -0.17035562 1.3980001
0.32582545 -0.16962448 1.3920001
0.32708696 -0.1690152 1.3870001
0.32951882 -0.1690152 1.3870001
0.33195069 -0.1690152 1.3870001
0.33438259 -0.1690152 1.3870001
0.33681446 -0.1690152 1.3870001
0.33777878 -0.16828406 1.381
0.34020016 -0.16828406 1.381
0.34262151 -0.16828406 1.381
0.34504285 -0.16828406 1.381
0.3474642 -0.16828406 1.381
0.34988555 -0.16828406 1.381
0.35103136 -0.16767476 1.376
0.35344395 -0.16767476 1.376
0.35430482 -0.16694364 1.3700001
0.35670689 -0.16694364 1.3700001
0.35910895 -0.16694364 1.3700001
0.36019164 -0.16633435 1.365
0.36258495 -0.16633435 1.365
0.36497825 -0.16633435 1.365
0.36575672 -0.16560321 1.3590001
0.36813951 -0.16560321 1.3590001
0.37290508 -0.16560321 1.3590001
0.37390709 -0.16499393 1.3540001
0.37628111 -0.16499393 1.3540001
0.37865514 -0.16499393 1.3540001
0.38102913 -0.16499393 1.3540001
0.38340315 -0.16499393 1.3540001
0.38435259 -0.16438465 1.3490001
0.38671783 -0.16438465 1.3490001
0.38908309 -0.16438465 1.3490001
0.38970727 -0.16365351 1.3430001
0.3929483 -0.16304421 1.3380001
0.39381707 -0.16243494 1.3330001
0.39615425 -0.16243494 1.3330001
0.39699674 -0.16182566 1.3280001
0.39932516 -0.16182566 1.3280001
0.40165359 -0.16182566 1.3280001
0.40398201 -0.16182566 1.3280001
0.40631044 -0.16182566 1.3280001
0.40863886 -0.16182566 1.3280001
0.41096729 -0.16182566 1.3280001
0.41142842 -0.16109452 1.322
0.41374633 -0.16109452 1.322
0.41606423 -0.16109452 1.322
0.41838214 -0.16109452 1.322
0.42070004 -0.16109452 1.322
0.42141804 -0.16048522 1.317
0.42372718 -0.16048522 1.317
0.42441887 -0.15987594 1.312
0.42509302 -0.15926667 1.307
0.42738464 -0.15926667 1.307
0.42967623 -0.15926667 1.307
0.43196785 -0.15926667 1.307
0.43425947 -0.15926667 1.307
0.43488103 -0.15865737 1.302
0.43716386 -0.15865737 1.302
0.43944669 -0.15865737 1.302
0.4400332 -0.15804809 1.2970001
0.44060215 -0.15743881 1.2920001
0.44149634 -0.15695138 1.2880001
0.44375464 -0.15695138 1.2880001
0.44601294 -0.15695138 1.2880001
0.44827121 -0.15695138 1.2880001
0.44878057 -0.1563421 1.2830001
0.45103011 -0.1563421 1.2830001
0.25969058 -0.17354931 1.4450001
0.26222414 -0.17354931 1.4450001
0.26365837 -0.17282869 1.439
0.26618141 -0.17282869 1.439
0.26758409 -0.17210807 1.4330001
0.2700966 -0.17210807 1.4330001
0.27396974 -0.17138745 1.427
0.27530926 -0.17066683 1.4210001
0.27780077 -0.17066683 1.4210001
0.28029224 -0.17066683 1.4210001
0.28158972 -0.16994621 1.4150001
0.28407067 -0.16994621 1.4150001
0.28655165 -0.16994621 1.4150001
0.28801131 -0.16934569 1.4100001
0.2904835 -0.16934569 1.4100001
0.2929557 -0.16934569 1.4100001
0.29417077 -0.16862507 1.404
0.29663244 -0.16862507 1.404
0.29909411 -0.16862507 1.404
0.30155581 -0.16862507 1.404
0.30401748 -0.16862507 1.404
0.30894083 -0.16862507 1.404
0.31140253 -0.16862507 1.404
0.3138642 -0.16862507 1.404
0.31742522 -0.16790445 1.3980001
0.31987637 -0.16790445 1.3980001
0.32232752 -0.16790445 1.3980001
0.32477871 -0.16790445 1.3980001
0.32465509 -0.16658333 1.3870001
0.32708696 -0.16658333 1.3870001
0.32951882 -0.16658333 1.3870001
0.33195069 -0.16658333 1.3870001
0.33293608 -0.16586271 1.381
0.33535743 -0.16586271 1.381
0.33777878 -0.16586271 1.381
0.34020016 -0.16586271 1.381
0.34262151 -0.16586271 1.381
0.34504285 -0.16586271 1.381
0.3474642 -0.16586271 1.381
0.34861878 -0.16526219 1.376
0.35103136 -0.16526219 1.376
0.35344395 -0.16526219 1.376
0.35430482 -0.16454157 1.3700001
0.35670689 -0.16454157 1.3700001
0.35910895 -0.16454157 1.3700001
0.36019164 -0.16394106 1.365
0.36258495 -0.16394106 1.365
0.36337394 -0.16322044 1.3590001
0.36575672 -0.16322044 1.3590001
0.36813951 -0.16322044 1.3590001
0.37052229 -0.16322044 1.3590001
0.3715331 -0.16261992 1.3540001
0.37252635 -0.1620194 1.3490001
0.38198733 -0.1620194 1.3490001
0.38435259 -0.1620194 1.3490001
0.38671783 -0.1620194 1.3490001
0.38735253 -0.16129878 1.3430001
0.38970727 -0.16129878 1.3430001
0.39060235 -0.16069826 1.3380001
0.3929483 -0.16069826 1.3380001
0.39381707 -0.16009775 1.3330001
0.39615425 -0.16009775 1.3330001
0.39849147 -0.16009775 1.3330001
0.40082866 -0.16009775 1.3330001
0.40316585 -0.16009775 1.3330001
0.40398201 -0.15949723 1.3280001
0.40863886 -0.15949723 1.3280001
0.41096729 -0.15949723 1.3280001
0.41142842 -0.15877661 1.322
0.41606423 -0.15877661 1.322
0.41838214 -0.15877661 1.322
0.42070004 -0.15877661 1.322
0.42141804 -0.15817609 1.317
0.42372718 -0.15817609 1.317
0.42441887 -0.15757558 1.312
0.42509302 -0.15697506 1.307
0.42738464 -0.15697506 1.307
0.42967623 -0.15697506 1.307
0.43196785 -0.15697506 1.307
0.43425947 -0.15697506 1.307
0.43488103 -0.15637454 1.302
0.43716386 -0.15637454 1.302
0.43944669 -0.15637454 1.302
0.4400332 -0.15577403 1.2970001
0.44149634 -0.1546931 1.2880001
0.44375464 -0.1546931 1.2880001
0.44601294 -0.1546931 1.2880001
0.44653103 -0.15409258 1.2830001
0.44878057 -0.15409258 1.2830001
0.25715703 -0.17101575 1.4450001
0.25969058 -0.17101575 1.4450001
0.26113534 -0.17030565 1.439
0.26365837 -0.17030565 1.439
0.26507157 -0.16959555 1.4330001
0.26758409 -0.16959555 1.4330001
0.2700966 -0.16959555 1.4330001
0.27146772 -0.16888545 1.427
0.27396974 -0.16888545 1.427
0.27530926 -0.16817535 1.4210001
0.27780077 -0.16817535 1.4210001
0.28029224 -0.16817535 1.4210001
0.28158972 -0.16746525 1.4150001
0.28407067 -0.16746525 1.4150001
0.28655165 -0.16746525 1.4150001
0.28801131 -0.1668735 1.4100001
0.2904835 -0.1668735 1.4100001
0.29417077 -0.1661634 1.404
0.29663244 -0.1661634 1.404
0.29909411 -0.1661634 1.404
0.30155581 -0.1661634 1.404
0.30271825 -0.1654533 1.3980001
0.31140253 -0.1661634 1.404
0.3138642 -0.1661634 1.404
0.31497407 -0.1654533 1.3980001
0.31742522 -0.1654533 1.3980001
0.31987637 -0.1654533 1.3980001
0.32232752 -0.1654533 1.3980001
0.32477871 -0.1654533 1.3980001
0.32465509 -0.16415145 1.3870001
0.32708696 -0.16415145 1.3870001
0.32951882 -0.16415145 1.3870001
0.33195069 -0.16415145 1.3870001
0.33293608 -0.16344135 1.381
0.33535743 -0.16344135 1.381
0.33777878 -0.16344135 1.381
0.34020016 -0.16344135 1.381
0.34262151 -0.16344135 1.381
0.34504285 -0.16344135 1.381
0.34620619 -0.16284961 1.376
0.34861878 -0.16284961 1.376
0.35103136 -0.16284961 1.376
0.35190275 -0.16213951 1.3700001
0.35430482 -0.16213951 1.3700001
0.35540506 -0.16154775 1.365
0.35779834 -0.16154775 1.365
0.36019164 -0.16154775 1.365
0.36258495 -0.16154775 1.365
0.36337394 -0.16083765 1.3590001
0.36575672 -0.16083765 1.3590001
0.36813951 -0.16083765 1.3590001
0.36915907 -0.1602459 1.3540001
0.3715331 -0.1602459 1.3540001
0.37252635 -0.15965416 1.3490001
0.37489161 -0.15965416 1.3490001
0.37725684 -0.15965416 1.3490001
0.3796221 -0.15965416 1.3490001
0.38198733 -0.15965416 1.3490001
0.38435259 -0.15965416 1.3490001
0.38671783 -0.15965416 1.3490001
0.38735253 -0.15894406 1.3430001
0.38970727 -0.15894406 1.3430001
0.39206198 -0.15894406 1.3430001
0.3929483 -0.1583523 1.3380001
0.39529425 -0.1583523 1.3380001
0.39764023 -0.1583523 1.3380001
0.39849147 -0.15776055 1.3330001
0.40082866 -0.15776055 1.3330001
0.40316585 -0.15776055 1.3330001
0.40398201 -0.15716881 1.3280001
0.40631044 -0.15716881 1.3280001
0.40863886 -0.15716881 1.3280001
0.41096729 -0.15716881 1.3280001
0.41142842 -0.15645871 1.322
0.41374633 -0.15645871 1.322
0.41606423 -0.15645871 1.322
0.41679975 -0.15586695 1.317
0.4191089 -0.15586695 1.317
0.42141804 -0.15586695 1.317
0.42372718 -0.15586695 1.317
0.42441887 -0.1552752 1.312
0.42509302 -0.15468346 1.307
0.42738464 -0.15468346 1.307
0.42967623 -0.15468346 1.307
0.43196785 -0.15468346 1.307
0.43425947 -0.15468346 1.307
0.43488103 -0.1540917 1.302
0.43716386 -0.1540917 1.302
0.43944669 -0.1540917 1.302
0.4400332 -0.15349995 1.2970001
0.44230726 -0.15349995 1.2970001
0.44286746 -0.15290821 1.2920001
0.44375464 -0.1524348 1.2880001
0.44601294 -0.1524348 1.2880001
0.44653103 -0.15184306 1.2830001
0.44878057 -0.15184306 1.2830001
0.45103011 -0.15184306 1.2830001
0.45151314 -0.1512513 1.2780001
0.45375389 -0.1512513 1.2780001
0.45421064 -0.15065955 1.273
0.25608924 -0.1677826 1.439
0.25861228 -0.1677826 1.439
0.26113534 -0.1677826 1.439
0.26255903 -0.16708302 1.4330001
0.26507157 -0.16708302 1.4330001
0.26758409 -0.16708302 1.4330001
0.26896572 -0.16638345 1.427
0.27146772 -0.16638345 1.427
0.27396974 -0.16638345 1.427
0.27530926 -0.16568387 1.4210001
0.27780077 -0.16568387 1.4210001
0.28029224 -0.16568387 1.4210001
0.28278375 -0.16568387 1.4210001
0.28407067 -0.16498429 1.4150001
0.28553909 -0.16440129 1.4100001
0.28801131 -0.16440129 1.4100001
0.2904835 -0.16440129 1.4100001
0.29417077 -0.16370171 1.404
0.29663244 -0.16370171 1.404
0.29909411 -0.16370171 1.404
0.30155581 -0.16370171 1.404
0.30271825 -0.16300213 1.3980001
0.31140253 -0.16370171 1.404
0.31742522 -0.16300213 1.3980001
0.31987637 -0.16300213 1.3980001
0.32232752 -0.16300213 1.3980001
0.32338479 -0.16230255 1.3920001
0.32465509 -0.16171958 1.3870001
0.32708696 -0.16171958 1.3870001
0.32951882 -0.16171958 1.3870001
0.33293608 -0.16102 1.381
0.33535743 -0.16102 1.381
0.33777878 -0.16102 1.381
0.34020016 -0.16102 1.381
0.34262151 -0.16102 1.381
0.34504285 -0.16102 1.381
0.34620619 -0.16043702 1.376
0.34861878 -0.16043702 1.376
0.35103136 -0.16043702 1.376
0.35190275 -0.15973744 1.3700001
0.35430482 -0.15973744 1.3700001
0.35540506 -0.15915444 1.365
0.35779834 -0.15915444 1.365
0.36019164 -0.15915444 1.365
0.36258495 -0.15915444 1.365
0.36575672 -0.15845487 1.3590001
0.36678505 -0.15787189 1.3540001
0.36915907 -0.15787189 1.3540001
0.3715331 -0.15787189 1.3540001
0.37252635 -0.15728891 1.3490001
0.37489161 -0.15728891 1.3490001
0.37725684 -0.15728891 1.3490001
0.3796221 -0.15728891 1.3490001
0.38198733 -0.15728891 1.3490001
0.38435259 -0.15728891 1.3490001
0.38671783 -0.15728891 1.3490001
0.38735253 -0.15658933 1.3430001
0.38970727 -0.15658933 1.3430001
0.39529425 -0.15600634 1.3380001
0.39764023 -0.15600634 1.3380001
0.39849147 -0.15542336 1.3330001
0.40082866 -0.15542336 1.3330001
0.40316585 -0.15542336 1.3330001
0.40550303 -0.15542336 1.3330001
0.40631044 -0.15484037 1.3280001
0.40863886 -0.15484037 1.3280001
0.41096729 -0.15484037 1.3280001
0.41142842 -0.15414079 1.322
0.41374633 -0.15414079 1.322
0.41606423 -0.15414079 1.322
0.41679975 -0.15355781 1.317
0.4191089 -0.15355781 1.317
0.42141804 -0.15355781 1.317
0.42372718 -0.15355781 1.317
0.42280143 -0.15239184 1.307
0.42509302 -0.15239184 1.307
0.42738464 -0.15239184 1.307
0.43132001 -0.15297483 1.312
0.43196785 -0.15239184 1.307
0.43425947 -0.15239184 1.307
0.43488103 -0.15180886 1.302
0.43716386 -0.15180886 1.302
0.43944669 -0.15180886 1.302
0.4400332 -0.15122588 1.2970001
0.44060215 -0.15064289 1.2920001
0.44286746 -0.15064289 1.2920001
0.44375464 -0.15017651 1.2880001
0.44601294 -0.15017651 1.2880001
0.44653103 -0.14959352 1.2830001
0.44878057 -0.14959352 1.2830001
0.45103011 -0.14959352 1.2830001
0.45151314 -0.14901054 1.2780001
0.45375389 -0.14901054 1.2780001
0.25462344 -0.16594861 1.4450001
0.25608924 -0.16525955 1.439
0.25861228 -0.16525955 1.439
0.26004651 -0.1645705 1.4330001
0.26255903 -0.1645705 1.4330001
0.26507157 -0.1645705 1.4330001
0.26896572 -0.16388144 1.427
0.27146772 -0.16388144 1.427
0.27281779 -0.16319238 1.4210001
0.27530926 -0.16319238 1.4210001
0.27662778 -0.16250332 1.4150001
0.27910876 -0.16250332 1.4150001
0.28278375 -0.16319238 1.4210001
0.28407067 -0.16250332 1.4150001
0.28655165 -0.16250332 1.4150001
0.28801131 -0.1619291 1.4100001
0.2904835 -0.1619291 1.4100001
0.29417077 -0.16124004 1.404
0.29663244 -0.16124004 1.404
0.29781595 -0.16055098 1.3980001
0.3002671 -0.16055098 1.3980001
0.30271825 -0.16055098 1.3980001
0.3051694 -0.16055098 1.3980001
0.30762058 -0.16055098 1.3980001
0.31850353 -0.15986192 1.3920001
0.32094416 -0.15986192 1.3920001
0.32338479 -0.15986192 1.3920001
0.32465509 -0.15928771 1.3870001
0.32708696 -0.15928771 1.3870001
0.32951882 -0.15928771 1.3870001
0.33195069 -0.15928771 1.3870001
0.33293608 -0.15859865 1.381
0.33535743 -0.15859865 1.381
0.33777878 -0.15859865 1.381
0.34504285 -0.15859865 1.381
0.34620619 -0.15802443 1.376
0.34861878 -0.15802443 1.376
0.35103136 -0.15802443 1.376
0.35190275 -0.15733537 1.3700001
0.35430482 -0.15733537 1.3700001
0.35540506 -0.15676115 1.365
0.35779834 -0.15676115 1.365
0.36575672 -0.1560721 1.3590001
0.36813951 -0.1560721 1.3590001
0.37052229 -0.1560721 1.3590001
0.37390709 -0.15549788 1.3540001
0.37628111 -0.15549788 1.3540001
0.37865514 -0.15549788 1.3540001
0.38102913 -0.15549788 1.3540001
0.38198733 -0.15492366 1.3490001
0.38435259 -0.15492366 1.3490001
0.38671783 -0.15492366 1.3490001
0.38735253 -0.1542346 1.3430001
0.38970727 -0.1542346 1.3430001
0.3929483 -0.15366037 1.3380001
0.39529425 -0.15366037 1.3380001
0.39764023 -0.15366037 1.3380001
0.39849147 -0.15308616 1.3330001
0.40082866 -0.15308616 1.3330001
0.40316585 -0.15308616 1.3330001
0.40398201 -0.15251194 1.3280001
0.40631044 -0.15251194 1.3280001
0.40863886 -0.15251194 1.3280001
0.40911052 -0.15182288 1.322
0.41142842 -0.15182288 1.322
0.41374633 -0.15182288 1.322
0.41606423 -0.15182288 1.322
0.41679975 -0.15124866 1.317
0.4191089 -0.15124866 1.317
0.42141804 -0.15124866 1.317
0.42211851 -0.15067445 1.312
0.42441887 -0.15067445 1.312
0.42509302 -0.15010023 1.307
0.42738464 -0.15010023 1.307
0.43132001 -0.15067445 1.312
0.43196785 -0.15010023 1.307
0.43425947 -0.15010023 1.307
0.43655106 -0.15010023 1.307
0.43716386 -0.14952601 1.302
0.43944669 -0.14952601 1.302
0.44172955 -0.14952601 1.302
0.44230726 -0.1489518 1.2970001
0.44286746 -0.14837758 1.2920001
0.44513276 -0.14837758 1.2920001
0.44601294 -0.14791821 1.2880001
0.44653103 -0.14734399 1.2830001
0.44878057 -0.14734399 1.2830001
0.45103011 -0.14734399 1.2830001
0.45151314 -0.14676978 1.2780001
0.45375389 -0.14676978 1.2780001
0.45421064 -0.14619556 1.273
0.25104314 -0.16273651 1.439
0.25356618 -0.16273651 1.439
0.25608924 -0.16273651 1.439
0.25861228 -0.16273651 1.439
0.26004651 -0.16205797 1.4330001
0.26255903 -0.16205797 1.4330001
0.2639617 -0.16137943 1.427
0.2664637 -0.16137943 1.427
0.26896572 -0.16137943 1.427
0.27032632 -0.16070089 1.4210001
0.27281779 -0.16070089 1.4210001
0.27662778 -0.16002235 1.4150001
0.27910876 -0.16002235 1.4150001
0.28278375 -0.16070089 1.4210001
0.28407067 -0.16002235 1.4150001
0.28655165 -0.16002235 1.4150001
0.28801131 -0.15945689 1.4100001
0.2904835 -0.15945689 1.4100001
0.29170907 -0.15877835 1.404
0.29417077 -0.15877835 1.404
0.29663244 -0.15877835 1.404
0.29781595 -0.15809982 1.3980001
0.3002671 -0.15809982 1.3980001
0.30271825 -0.15809982 1.3980001
0.3051694 -0.15809982 1.3980001
0.30762058 -0.15809982 1.3980001
0.31007174 -0.15809982 1.3980001
0.31252289 -0.15809982 1.3980001
0.31497407 -0.15809982 1.3980001
0.31742522 -0.15809982 1.3980001
0.31850353 -0.15742128 1.3920001
0.32094416 -0.15742128 1.3920001
0.32338479 -0.15742128 1.3920001
0.32465509 -0.15685582 1.3870001
0.32708696 -0.15685582 1.3870001
0.32951882 -0.15685582 1.3870001
0.33195069 -0.15685582 1.3870001
0.33293608 -0.15617728 1.381
0.33535743 -0.15617728 1.381
0.33777878 -0.15617728 1.381
0.34262151 -0.15617728 1.381
0.34504285 -0.15617728 1.381
0.34620619 -0.15561184 1.376
0.35103136 -0.15561184 1.376
0.35190275 -0.1549333 1.3700001
0.35430482 -0.1549333 1.3700001
0.35540506 -0.15436785 1.365
0.35779834 -0.15436785 1.365
0.36019164 -0.15436785 1.365
0.36258495 -0.15436785 1.365
0.36337394 -0.15368931 1.3590001
0.36575672 -0.15368931 1.3590001
0.37052229 -0.15368931 1.3590001
0.37290508 -0.15368931 1.3590001
0.37390709 -0.15312386 1.3540001
0.37628111 -0.15312386 1.3540001
0.37725684 -0.15255842 1.3490001
0.3796221 -0.15255842 1.3490001
0.38198733 -0.15255842 1.3490001
0.38435259 -0.15255842 1.3490001
0.38499781 -0.15187986 1.3430001
0.38735253 -0.15187986 1.3430001
0.38970727 -0.15187986 1.3430001
0.39060235 -0.15131442 1.3380001
0.3929483 -0.15131442 1.3380001
0.39529425 -0.15131442 1.3380001
0.39615425 -0.15074897 1.3330001
0.39849147 -0.15074897 1.3330001
0.40082866 -0.15074897 1.3330001
0.40316585 -0.15074897 1.3330001
0.40398201 -0.15018351 1.3280001
0.40631044 -0.15018351 1.3280001
0.40679261 -0.14950497 1.322
0.40911052 -0.14950497 1.322
0.41142842 -0.14950497 1.322
0.41374633 -0.14950497 1.322
0.41449064 -0.14893954 1.317
0.41679975 -0.14893954 1.317
0.4191089 -0.14893954 1.317
0.41981813 -0.14837408 1.312
0.42211851 -0.14837408 1.312
0.42441887 -0.14837408 1.312
0.42509302 -0.14780863 1.307
0.42738464 -0.14780863 1.307
0.43132001 -0.14837408 1.312
0.43196785 -0.14780863 1.307
0.43425947 -0.14780863 1.307
0.43655106 -0.14780863 1.307
0.43716386 -0.14724317 1.302
0.43944669 -0.14724317 1.302
0.4400332 -0.14667773 1.2970001
0.44230726 -0.14667773 1.2970001
0.44286746 -0.14611228 1.2920001
0.44375464 -0.14565992 1.2880001
0.44601294 -0.14565992 1.2880001
0.44827121 -0.14565992 1.2880001
0.44878057 -0.14509447 1.2830001
0.45103011 -0.14509447 1.2830001
0.45151314 -0.14452901 1.2780001
0.45375389 -0.14452901 1.2780001
0.45421064 -0.14396358 1.273
0.24852009 -0.16021346 1.439
0.25104314 -0.16021346 1.439
0.25356618 -0.16021346 1.439
0.25502145 -0.15954544 1.4330001
0.25753397 -0.15954544 1.4330001
0.25895768 -0.15887742 1.427
0.26145971 -0.15887742 1.427
0.2639617 -0.15887742 1.427
0.2664637 -0.15887742 1.427
0.26896572 -0.15887742 1.427
0.27032632 -0.1582094 1.4210001
0.27166584 -0.15754138 1.4150001
0.27414683 -0.15754138 1.4150001
0.27662778 -0.15754138 1.4150001
0.27910876 -0.15754138 1.4150001
0.28158972 -0.15754138 1.4150001
0.28407067 -0.15754138 1.4150001
0.28553909 -0.1569847 1.4100001
0.2904835 -0.1569847 1.4100001
0.29170907 -0.15631668 1.404
0.29417077 -0.15631668 1.404
0.29663244 -0.15631668 1.404
