# .PCD v0.7 - Point Cloud Data file format
VERSION 0.7
FIELDS x y z
SIZE 4 4 4
TYPE F F F
COUNT 1 1 1
WIDTH 1608
HEIGHT 1
VIEWPOINT 0 0 0 1 0 0 0
POINTS 1608
DATA ascii
-0.11906448 0.22259882 1.1810001
-0.11699379 0.22259882 1.1810001
-0.11453387 0.22184488 1.177
-0.10871105 0.22259882 1.1810001
-0.10664036 0.22259882 1.1810001
-0.1042155 0.22184488 1.177
-0.10215183 0.22184488 1.177
-0.093258925 0.22033702 1.169
-0.046394952 0.21223223 1.126
-0.044302348 0.21166678 1.123
-0.042333357 0.21166678 1.123
-0.040364362 0.21166678 1.123
-0.038258608 0.21091285 1.1190001
-0.036426377 0.21166678 1.123
-0.034334648 0.21091285 1.1190001
-0.032488391 0.21166678 1.123
-0.016512893 0.20883954 1.108
-0.0145702 0.20883954 1.108
-0.012593317 0.20827408 1.105
-0.010655884 0.20827408 1.105
-0.0087184496 0.20827408 1.105
0.0047778334 0.20544684 1.09
0.0066889664 0.20544684 1.09
0.021776401 0.20356199 1.08
0.023669999 0.20356199 1.08
0.0255636 0.20356199 1.08
0.029269271 0.20299655 1.077
0.031157609 0.20299655 1.077
0.033045951 0.20299655 1.077
0.035031598 0.20356199 1.08
0.0369252 0.20356199 1.08
0.038818799 0.20356199 1.08
0.12777855 0.22335275 1.1850001
0.13029458 0.22410668 1.189
0.13282464 0.22486061 1.1930001
0.13446401 0.22410668 1.189
0.13562998 0.22259882 1.1810001
0.13723427 0.22184488 1.177
0.13882455 0.22109094 1.1730001
0.14376369 0.22561455 1.197
0.14586243 0.22561455 1.197
0.14796117 0.22561455 1.197
0.15005991 0.22561455 1.197
0.15215865 0.22561455 1.197
0.15425739 0.22561455 1.197
0.15583363 0.22486061 1.1930001
0.15739585 0.22410668 1.189
0.15894406 0.22335275 1.1850001
0.15993468 0.22184488 1.177
0.16199836 0.22184488 1.177
0.16461959 0.22259882 1.1810001
0.16725485 0.22335275 1.1850001
0.16933255 0.22335275 1.1850001
0.17025305 0.22184488 1.177
0.17348795 0.22335275 1.1850001
0.17556565 0.22335275 1.1850001
0.17824298 0.22410668 1.189
0.1803277 0.22410668 1.189
0.18241242 0.22410668 1.189
0.19203471 0.22561455 1.197
0.19413345 0.22561455 1.197
0.19492069 0.22410668 1.189
0.19634265 0.22335275 1.1850001
0.19842035 0.22335275 1.1850001
0.19982126 0.22259882 1.1810001
0.20189194 0.22259882 1.1810001
0.20396264 0.22259882 1.1810001
0.20603332 0.22259882 1.1810001
0.20669433 0.22109094 1.1730001
0.20803913 0.22033702 1.169
0.20936991 0.21958308 1.1650001
0.21141255 0.21958308 1.1650001
0.21272229 0.21882915 1.161
0.2147579 0.21882915 1.161
0.2160466 0.21807522 1.1570001
0.21732128 0.21732128 1.153
0.21934287 0.21732128 1.153
0.22136447 0.21732128 1.153
0.22338606 0.21732128 1.153
0.22540766 0.21732128 1.153
0.22821824 0.21807522 1.1570001
0.23024686 0.21807522 1.1570001
0.23227546 0.21807522 1.1570001
0.23430407 0.21807522 1.1570001
0.23633267 0.21807522 1.1570001
0.23836128 0.21807522 1.1570001
0.24038988 0.21807522 1.1570001
0.24325658 0.21882915 1.161
0.2444471 0.21807522 1.1570001
0.24562359 0.21732128 1.153
0.24678604 0.21656735 1.149
0.24880064 0.21656735 1.149
0.25081521 0.21656735 1.149
0.25370997 0.21732128 1.153
0.25484437 0.21656735 1.149
0.25775313 0.21732128 1.153
0.25977474 0.21732128 1.153
0.26179633 0.21732128 1.153
0.26290268 0.21656735 1.149
0.26583952 0.21732128 1.153
0.26786113 0.21732128 1.153
0.26894644 0.21656735 1.149
0.27096102 0.21656735 1.149
0.27202529 0.21581341 1.1450001
0.27403286 0.21581341 1.1450001
0.27604041 0.21581341 1.1450001
0.27804798 0.21581341 1.1450001
0.2790772 0.21505949 1.141
0.28206313 0.21581341 1.1450001
0.28407067 0.21581341 1.1450001
0.28507885 0.21505949 1.141
0.28632459 0.21449403 1.138
0.28907996 0.21505949 1.141
0.29031518 0.21449403 1.138
0.29231048 0.21449403 1.138
0.29508162 0.21505949 1.141
0.29525957 0.2137401 1.1340001
0.29829636 0.21449403 1.138
0.30029166 0.21449403 1.138
0.30308384 0.21505949 1.141
0.30428222 0.21449403 1.138
0.30627751 0.21449403 1.138
0.30908549 0.21505949 1.141
0.3102681 0.21449403 1.138
0.3130866 0.21505949 1.141
0.31425869 0.21449403 1.138
0.31708771 0.21505949 1.141
0.31908825 0.21505949 1.141
0.32024458 0.21449403 1.138
0.32223988 0.21449403 1.138
0.32423517 0.21449403 1.138
0.32508379 0.2137401 1.1340001
0.32707205 0.2137401 1.1340001
0.32789963 0.21298617 1.13
0.32988089 0.21298617 1.13
0.33068743 0.21223223 1.126
0.33266169 0.21223223 1.126
0.33463594 0.21223223 1.126
0.3366102 0.21223223 1.126
0.33858445 0.21223223 1.126
0.34055871 0.21223223 1.126
0.34253296 0.21223223 1.126
0.34450722 0.21223223 1.126
0.34648147 0.21223223 1.126
0.34969357 0.21298617 1.13
0.35042995 0.21223223 1.126
0.35240421 0.21223223 1.126
0.35437846 0.21223223 1.126
0.35635272 0.21223223 1.126
0.35832697 0.21223223 1.126
0.35934129 0.21166678 1.123
0.36227548 0.21223223 1.126
0.36327925 0.21166678 1.123
0.36524826 0.21166678 1.123
0.36721724 0.21166678 1.123
0.3701725 0.21223223 1.126
0.37214676 0.21223223 1.126
0.37545004 0.21298617 1.13
0.3774313 0.21298617 1.13
0.37941256 0.21298617 1.13
0.38139382 0.21298617 1.13
0.38337511 0.21298617 1.13
0.38535637 0.21298617 1.13
0.38733763 0.21298617 1.13
-0.12612516 0.2261914 1.189
-0.12404044 0.2261914 1.189
-0.12195573 0.2261914 1.189
-0.11906448 0.2246695 1.1810001
-0.11659754 0.22390856 1.177
-0.11453387 0.22390856 1.177
-0.11285242 0.2246695 1.1810001
-0.10664036 0.2246695 1.1810001
-0.095634691 0.22314762 1.1730001
-0.093578026 0.22314762 1.1730001
-0.091209278 0.22238666 1.169
-0.067488432 0.21858193 1.149
-0.044302348 0.21363577 1.123
-0.042182568 0.21287483 1.1190001
-0.040220588 0.21287483 1.1190001
-0.038121849 0.21211389 1.115
-0.036296628 0.21287483 1.1190001
-0.034334648 0.21287483 1.1190001
-0.03225695 0.21211389 1.115
-0.030301983 0.21211389 1.115
-0.028270746 0.21154317 1.1120001
-0.02622636 0.21078223 1.108
-0.02039828 0.21078223 1.108
-0.018455587 0.21078223 1.108
-0.016512893 0.21078223 1.108
0.0085764304 0.20678726 1.087
0.021715909 0.20488489 1.077
0.02360425 0.20488489 1.077
0.02539791 0.20412394 1.0730001
0.02738093 0.20488489 1.077
0.029160563 0.20412394 1.0730001
0.03104189 0.20412394 1.0730001
0.032923218 0.20412394 1.0730001
0.034804542 0.20412394 1.0730001
0.036822628 0.20488489 1.077
0.038818799 0.2054556 1.08
0.040599309 0.20488489 1.077
0.042487651 0.20488489 1.077
0.04437599 0.20488489 1.077
0.12570085 0.22543044 1.1850001
0.12777855 0.22543044 1.1850001
0.13029458 0.2261914 1.189
0.13327 0.22771329 1.197
0.13491637 0.22695234 1.1930001
0.13562998 0.2246695 1.1810001
0.13676789 0.22314762 1.1730001
0.14071815 0.2261914 1.189
0.14328328 0.22695234 1.1930001
0.145375 0.22695234 1.1930001
0.14796117 0.22771329 1.197
0.15005991 0.22771329 1.197
0.15215865 0.22771329 1.197
0.15425739 0.22771329 1.197
0.15583363 0.22695234 1.1930001
0.15686634 0.22543044 1.1850001
0.15840752 0.2246695 1.1810001
0.15884762 0.22238666 1.169
0.16089725 0.22238666 1.169
0.16294691 0.22238666 1.169
0.16443199 0.22162572 1.1650001
0.16818938 0.22390856 1.177
0.16967446 0.22314762 1.1730001
0.17173111 0.22314762 1.1730001
0.17556565 0.22543044 1.1850001
0.17764334 0.22543044 1.1850001
0.17972104 0.22543044 1.1850001
0.18241242 0.2261914 1.189
0.21141255 0.22162572 1.1650001
0.21345519 0.22162572 1.1650001
0.2132781 0.21934287 1.153
0.2152997 0.21934287 1.153
0.21732128 0.21934287 1.153
0.21934287 0.21934287 1.153
0.22136447 0.21934287 1.153
0.22338606 0.21934287 1.153
0.22540766 0.21934287 1.153
0.22742926 0.21934287 1.153
0.22945084 0.21934287 1.153
0.23147243 0.21934287 1.153
0.23349403 0.21934287 1.153
0.23551562 0.21934287 1.153
0.23671314 0.21858193 1.149
0.23872773 0.21858193 1.149
0.23990421 0.21782099 1.1450001
0.24191178 0.21782099 1.1450001
0.24306723 0.21706003 1.141
0.24506778 0.21706003 1.141
0.24641873 0.21648933 1.138
0.24841402 0.21648933 1.138
0.25040931 0.21648933 1.138
0.25151742 0.21572837 1.1340001
0.25261149 0.21496743 1.13
0.25639519 0.21648933 1.138
0.25907165 0.21706003 1.141
0.26038578 0.21648933 1.138
0.26307276 0.21706003 1.141
0.26507333 0.21706003 1.141
0.26707387 0.21706003 1.141
0.27001771 0.21782099 1.1450001
0.27107498 0.21706003 1.141
0.27307552 0.21706003 1.141
0.27507609 0.21706003 1.141
0.27707663 0.21706003 1.141
0.27834341 0.21648933 1.138
0.2803387 0.21648933 1.138
0.282334 0.21648933 1.138
0.2833299 0.21572837 1.1340001
0.28431177 0.21496743 1.13
0.28730646 0.21572837 1.1340001
0.28827429 0.21496743 1.13
0.29025558 0.21496743 1.13
0.2932713 0.21572837 1.1340001
0.29421809 0.21496743 1.13
0.29619935 0.21496743 1.13
0.29818064 0.21496743 1.13
0.30122441 0.21572837 1.1340001
0.30214316 0.21496743 1.13
0.30412444 0.21496743 1.13
0.30718926 0.21572837 1.1340001
0.30917755 0.21572837 1.1340001
0.31116581 0.21572837 1.1340001
0.3131541 0.21572837 1.1340001
0.31514236 0.21572837 1.1340001
0.31713066 0.21572837 1.1340001
0.31911895 0.21572837 1.1340001
0.32110721 0.21572837 1.1340001
0.32195583 0.21496743 1.13
0.32393709 0.21496743 1.13
0.32476467 0.21420649 1.126
0.3258684 0.21363577 1.123
0.32783738 0.21363577 1.123
0.32863164 0.21287483 1.1190001
0.33177537 0.21363577 1.123
0.33255562 0.21287483 1.1190001
0.3345176 0.21287483 1.1190001
0.33647957 0.21287483 1.1190001
0.33965135 0.21363577 1.123
0.34162036 0.21363577 1.123
0.34450722 0.21420649 1.126
0.34555832 0.21363577 1.123
0.3484557 0.21420649 1.126
0.3494963 0.21363577 1.123
0.35146531 0.21363577 1.123
0.35343429 0.21363577 1.123
0.35413739 0.21287483 1.1190001
0.35609937 0.21287483 1.1190001
0.35806134 0.21287483 1.1190001
0.36002332 0.21287483 1.1190001
0.3619853 0.21287483 1.1190001
0.3639473 0.21287483 1.1190001
0.36590928 0.21287483 1.1190001
0.3701725 0.21420649 1.126
0.37214676 0.21420649 1.126
0.37412101 0.21420649 1.126
0.37609527 0.21420649 1.126
0.37806952 0.21420649 1.126
0.38399228 0.21420649 1.126
0.38596651 0.21420649 1.126
-0.12612516 0.2282761 1.189
-0.12404044 0.2282761 1.189
-0.12195573 0.2282761 1.189
-0.093258925 0.22443631 1.169
-0.09089718 0.22366835 1.1650001
-0.088854551 0.22366835 1.1650001
-0.042182568 0.21483681 1.1190001
-0.040220588 0.21483681 1.1190001
-0.038258608 0.21483681 1.1190001
-0.036166884 0.21406884 1.115
-0.030220453 0.21349289 1.1120001
-0.028169053 0.21272492 1.108
-0.02622636 0.21272492 1.108
-0.024217917 0.21214895 1.105
-0.02034305 0.21214895 1.105
-0.018405616 0.21214895 1.105
-0.01640857 0.21138099 1.1010001
-0.01447815 0.21138099 1.1010001
-0.01254773 0.21138099 1.1010001
0.0028588099 0.20869313 1.087
0.0047646831 0.20869313 1.087
0.0066521466 0.20811716 1.0840001
0.019827571 0.20677322 1.077
0.021635257 0.20600528 1.0730001
0.023516582 0.20600528 1.0730001
0.02539791 0.20600528 1.0730001
0.034804542 0.20600528 1.0730001
0.036822628 0.20677322 1.077
0.038567197 0.20600528 1.0730001
0.040712401 0.2073492 1.08
0.042606 0.2073492 1.08
0.04313989 0.20101354 1.0470001
0.12777855 0.22750814 1.1850001
0.13029458 0.2282761 1.189
0.13327 0.22981203 1.197
0.13401166 0.22750814 1.1850001
0.13562998 0.22674018 1.1810001
0.13723427 0.22597224 1.177
0.13929795 0.22597224 1.177
0.1404008 0.22443631 1.169
0.14245044 0.22443631 1.169
0.14450009 0.22443631 1.169
0.15776055 0.22290039 1.161
0.16034672 0.22366835 1.1650001
0.16238935 0.22366835 1.1650001
0.16386741 0.22290039 1.161
0.16761778 0.22520427 1.1730001
0.17025305 0.22597224 1.177
0.17290233 0.22674018 1.1810001
0.17556565 0.22750814 1.1850001
0.17764334 0.22750814 1.1850001
0.1803277 0.2282761 1.189
0.20578697 0.21771666 1.1340001
0.20777526 0.21771666 1.1340001
0.20902362 0.2169487 1.13
0.2152997 0.22136447 1.153
0.21732128 0.22136447 1.153
0.21858193 0.22059651 1.149
0.21982855 0.21982855 1.1450001
0.22261108 0.22059651 1.149
0.22462566 0.22059651 1.149
0.22664025 0.22059651 1.149
0.22945084 0.22136447 1.153
0.23147243 0.22136447 1.153
0.23268399 0.22059651 1.149
0.23469856 0.22059651 1.149
0.23671314 0.22059651 1.149
0.23789665 0.21982855 1.1450001
0.23906612 0.21906058 1.141
0.24106668 0.21906058 1.141
0.24242814 0.21848463 1.138
0.24442343 0.21848463 1.138
0.24555258 0.21771666 1.1340001
0.24754086 0.21771666 1.1340001
0.24864897 0.2169487 1.13
0.24974304 0.21618074 1.126
0.2517173 0.21618074 1.126
0.25459278 0.2169487 1.13
0.25657403 0.2169487 1.13
0.25855529 0.2169487 1.13
0.26053655 0.2169487 1.13
0.26344711 0.21771666 1.1340001
0.26637167 0.21848463 1.138
0.26907441 0.21906058 1.141
0.27107498 0.21906058 1.141
0.27307552 0.21906058 1.141
0.27435282 0.21848463 1.138
0.27537677 0.21771666 1.1340001
0.27638671 0.2169487 1.13
0.27738258 0.21618074 1.126
0.28034922 0.2169487 1.13
0.28133109 0.21618074 1.126
0.28330535 0.21618074 1.126
0.2852796 0.21618074 1.126
0.28725386 0.21618074 1.126
0.28922811 0.21618074 1.126
0.29120237 0.21618074 1.126
0.29317662 0.21618074 1.126
0.29515088 0.21618074 1.126
0.29712513 0.21618074 1.126
0.29909939 0.21618074 1.126
0.30107364 0.21618074 1.126
0.3030479 0.21618074 1.126
0.3061057 0.2169487 1.13
0.30699641 0.21618074 1.126
0.31006822 0.2169487 1.13
0.31094489 0.21618074 1.126
0.31208545 0.21560477 1.123
0.31405443 0.21560477 1.123
0.31602344 0.21560477 1.123
0.3188419 0.21618074 1.126
0.31996143 0.21560477 1.123
0.32193041 0.21560477 1.123
0.32274571 0.21483681 1.1190001
0.32354698 0.21406884 1.115
0.32666966 0.21483681 1.1190001
0.32745692 0.21406884 1.115
0.33059362 0.21483681 1.1190001
0.33255562 0.21483681 1.1190001
0.33332181 0.21406884 1.115
0.33527678 0.21406884 1.115
0.33844155 0.21483681 1.1190001
0.34040353 0.21483681 1.1190001
0.3423655 0.21483681 1.1190001
0.34309664 0.21406884 1.115
0.34628946 0.21483681 1.1190001
0.34700659 0.21406884 1.115
0.34896156 0.21406884 1.115
0.3509165 0.21406884 1.115
0.35287148 0.21406884 1.115
0.35482645 0.21406884 1.115
0.35678142 0.21406884 1.115
0.3587364 0.21406884 1.115
0.36069134 0.21406884 1.115
0.36264631 0.21406884 1.115
0.36460128 0.21406884 1.115
0.36918625 0.21560477 1.123
0.37115523 0.21560477 1.123
0.37312424 0.21560477 1.123
0.37509322 0.21560477 1.123
0.37706223 0.21560477 1.123
0.37768114 0.21483681 1.1190001
0.37964314 0.21483681 1.1190001
0.3829692 0.21560477 1.123
0.38493818 0.21560477 1.123
-0.12612516 0.23036082 1.189
-0.11906448 0.22881088 1.1810001
-0.044144548 0.21679878 1.1190001
-0.042031784 0.21602382 1.115
-0.040220588 0.21679878 1.1190001
-0.038121849 0.21602382 1.115
-0.036166884 0.21602382 1.115
-0.034119867 0.21544258 1.1120001
-0.032170162 0.21544258 1.1120001
-0.028169053 0.21466762 1.108
-0.026155351 0.21408638 1.105
-0.024217917 0.21408638 1.105
-0.022280483 0.21408638 1.105
-0.020269411 0.2133114 1.1010001
-0.018338989 0.2133114 1.1010001
-0.01640857 0.2133114 1.1010001
-0.01447815 0.2133114 1.1010001
-0.012502143 0.21253644 1.097
-0.010549807 0.2119552 1.0940001
-0.00095556665 0.21118023 1.09
0.00095293665 0.21059901 1.087
0.0028588099 0.21059901 1.087
0.0047646831 0.21059901 1.087
0.0066521466 0.21001777 1.0840001
0.016095599 0.20924281 1.08
0.01793923 0.20866157 1.077
0.023516582 0.20788659 1.0730001
0.039845377 0.2047867 1.057
0.041422501 0.2034305 1.0500001
0.04313989 0.20284927 1.0470001
0.044846758 0.20226803 1.044
0.04654311 0.20168681 1.041
0.048368331 0.20168681 1.041
0.050338201 0.20226803 1.044
0.052168678 0.20226803 1.044
0.05384399 0.20168681 1.041
0.055669211 0.20168681 1.041
0.057494428 0.20168681 1.041
0.059319649 0.20168681 1.041
0.06114487 0.20168681 1.041
0.062970087 0.20168681 1.041
0.064795308 0.20168681 1.041
0.066620529 0.20168681 1.041
0.12734723 0.22881088 1.1810001
0.12985624 0.22958584 1.1850001
0.13237929 0.23036082 1.189
0.13355929 0.22881088 1.1810001
0.13517061 0.2280359 1.177
0.13676789 0.22726093 1.1730001
0.13787775 0.22571099 1.1650001
0.1404008 0.22648595 1.169
0.14245044 0.22648595 1.169
0.15776055 0.22493601 1.161
0.15869507 0.22338606 1.153
0.1618318 0.22493601 1.161
0.16330284 0.22416103 1.1570001
0.16647461 0.22571099 1.1650001
0.16967446 0.22726093 1.1730001
0.20578697 0.21970494 1.1340001
0.20777526 0.21970494 1.1340001
0.20902362 0.21892996 1.13
0.2110049 0.21892996 1.13
0.21298617 0.21892996 1.13
0.21706003 0.22106114 1.141
0.21906058 0.22106114 1.141
0.22106114 0.22106114 1.141
0.2230617 0.22106114 1.141
0.22664025 0.22261108 1.149
0.22865483 0.22261108 1.149
0.23066941 0.22261108 1.149
0.23268399 0.22261108 1.149
0.23306446 0.22106114 1.141
0.23506501 0.22106114 1.141
0.23706557 0.22106114 1.141
0.23843755 0.22047991 1.138
0.24043284 0.22047991 1.138
0.24157602 0.21970494 1.1340001
0.24356429 0.21970494 1.1340001
0.24468642 0.21892996 1.13
0.2466677 0.21892996 1.13
0.24710867 0.21757376 1.123
0.24907765 0.21757376 1.123
0.25104666 0.21757376 1.123
0.25301564 0.21757376 1.123
0.25566581 0.218155 1.126
0.25764006 0.218155 1.126
0.25961432 0.218155 1.126
0.26251784 0.21892996 1.13
0.26543537 0.21970494 1.1340001
0.26836696 0.22047991 1.138
0.27036226 0.22047991 1.138
0.27235752 0.22047991 1.138
0.2733885 0.21970494 1.1340001
0.27343407 0.218155 1.126
0.27540833 0.218155 1.126
0.27664357 0.21757376 1.123
0.27861255 0.21757376 1.123
0.28058153 0.21757376 1.123
0.28255054 0.21757376 1.123
0.28451952 0.21757376 1.123
0.28648853 0.21757376 1.123
0.28845751 0.21757376 1.123
0.28939205 0.21679878 1.1190001
0.29135403 0.21679878 1.1190001
0.29331601 0.21679878 1.1190001
0.29633349 0.21757376 1.123
0.2983025 0.21757376 1.123
0.30027148 0.21757376 1.123
0.30116394 0.21679878 1.1190001
0.30312592 0.21679878 1.1190001
0.30508789 0.21679878 1.1190001
0.30897063 0.218155 1.126
0.31011644 0.21757376 1.123
0.30902851 0.21544258 1.1120001
0.30902061 0.21408638 1.105
0.31180227 0.21466762 1.108
0.31487763 0.21544258 1.1120001
0.31682733 0.21544258 1.1120001
0.31877702 0.21544258 1.1120001
0.32072675 0.21544258 1.1120001
0.32267645 0.21544258 1.1120001
0.32550195 0.21602382 1.115
0.32745692 0.21602382 1.115
0.32941189 0.21602382 1.115
0.33136684 0.21602382 1.115
0.33332181 0.21602382 1.115
0.33527678 0.21602382 1.115
0.33723176 0.21602382 1.115
0.33827409 0.21544258 1.1120001
0.34022382 0.21544258 1.1120001
0.34217352 0.21544258 1.1120001
0.34412321 0.21544258 1.1120001
0.34482807 0.21466762 1.108
0.34802264 0.21544258 1.1120001
0.34871346 0.21466762 1.108
0.35065615 0.21466762 1.108
0.35259885 0.21466762 1.108
0.35582146 0.21544258 1.1120001
0.35777116 0.21544258 1.1120001
0.35972089 0.21544258 1.1120001
0.36167058 0.21544258 1.1120001
0.36362028 0.21544258 1.1120001
0.36655626 0.21602382 1.115
0.3685112 0.21602382 1.115
0.37179521 0.21679878 1.1190001
0.37242115 0.21602382 1.115
0.37437612 0.21602382 1.115
0.37633109 0.21602382 1.115
0.37828603 0.21602382 1.115
0.38160512 0.21679878 1.1190001
-0.12654947 0.23322752 1.1930001
-0.12195573 0.23244554 1.189
-0.11906448 0.23088156 1.1810001
-0.11699379 0.23088156 1.1810001
-0.080129966 0.22618964 1.1570001
-0.077831343 0.22540766 1.153
-0.075809747 0.22540766 1.153
-0.052178323 0.21954276 1.123
-0.050209329 0.21954276 1.123
-0.048068509 0.21876077 1.1190001
-0.046106528 0.21876077 1.1190001
-0.043986749 0.21797878 1.115
-0.042031784 0.21797878 1.115
-0.040076815 0.21797878 1.115
-0.037882518 0.21661031 1.108
-0.035939828 0.21661031 1.108
-0.032054439 0.21661031 1.108
-0.030030217 0.21602382 1.105
-0.028092783 0.21602382 1.105
-0.026155351 0.21602382 1.105
-0.024130249 0.21524183 1.1010001
-0.02219983 0.21524183 1.1010001
-0.020269411 0.21524183 1.1010001
-0.018272363 0.21445984 1.097
-0.016348956 0.21445984 1.097
-0.01442555 0.21445984 1.097
-0.012467953 0.21387336 1.0940001
-0.00095293665 0.21250488 1.087
0.00095293665 0.21250488 1.087
0.00285092 0.21191838 1.0840001
0.0047340002 0.2111364 1.08
0.0066276002 0.2111364 1.08
0.0084975297 0.21054991 1.077
0.01038587 0.21054991 1.077
0.041304149 0.204685 1.0470001
0.04313989 0.204685 1.0470001
0.044846758 0.20409852 1.044
0.052018769 0.20351203 1.041
0.05368882 0.20292553 1.0380001
0.055669211 0.20351203 1.041
0.057328738 0.20292553 1.0380001
0.059148699 0.20292553 1.0380001
0.06096866 0.20292553 1.0380001
0.062970087 0.20351203 1.041
0.064795308 0.20351203 1.041
0.066620529 0.20351203 1.041
0.068642996 0.20409852 1.044
0.11211602 0.19686514 1.0070001
0.11354236 0.19627865 1.0040001
0.1153027 0.19627865 1.0040001
0.11741284 0.19686514 1.0070001
0.16330284 0.22618964 1.1570001
0.16590303 0.22697163 1.161
0.20578697 0.22169322 1.1340001
0.20777526 0.22169322 1.1340001
0.20902362 0.22091123 1.13
0.2110049 0.22091123 1.13
0.21223223 0.22012925 1.126
0.21496743 0.22091123 1.13
0.21848463 0.2224752 1.138
0.22047991 0.2224752 1.138
0.2224752 0.2224752 1.138
0.2244705 0.2224752 1.138
0.22785881 0.22384368 1.1450001
0.23066941 0.22462566 1.149
0.2310639 0.2230617 1.141
0.23163462 0.22169322 1.1340001
0.23362289 0.22169322 1.1340001
0.23644225 0.2224752 1.138
0.23759946 0.22169322 1.1340001
0.23958774 0.22169322 1.1340001
0.24157602 0.22169322 1.1340001
0.24270517 0.22091123 1.13
0.24382028 0.22012925 1.126
0.24579453 0.22012925 1.126
0.24622849 0.21876077 1.1190001
0.24819046 0.21876077 1.1190001
0.25015244 0.21876077 1.1190001
0.25211442 0.21876077 1.1190001
0.25498465 0.21954276 1.123
0.25695363 0.21954276 1.123
0.25800037 0.21876077 1.1190001
0.25996235 0.21876077 1.1190001
0.2628606 0.21954276 1.123
0.26482961 0.21954276 1.123
0.26679859 0.21954276 1.123
0.2687676 0.21954276 1.123
0.26977226 0.21876077 1.1190001
0.27076289 0.21797878 1.115
0.27369621 0.21876077 1.1190001
0.27467281 0.21797878 1.115
0.27762017 0.21876077 1.1190001
0.27958214 0.21876077 1.1190001
0.28154412 0.21876077 1.1190001
0.28249267 0.21797878 1.115
0.2854681 0.21876077 1.1190001
0.28743008 0.21876077 1.1190001
0.28835759 0.21797878 1.115
0.29031256 0.21797878 1.115
0.2922675 0.21797878 1.115
0.29422247 0.21797878 1.115
0.29617745 0.21797878 1.115
0.29813242 0.21797878 1.115
0.29927996 0.2173923 1.1120001
0.30014613 0.21661031 1.108
0.3020888 0.21661031 1.108
0.30403149 0.21661031 1.108
0.30404115 0.21524183 1.1010001
0.30708319 0.21602382 1.105
0.30790198 0.21524183 1.1010001
0.30983239 0.21524183 1.1010001
0.31176284 0.21524183 1.1010001
0.31369326 0.21524183 1.1010001
0.31562367 0.21524183 1.1010001
0.31870779 0.21602382 1.105
0.32064521 0.21602382 1.105
0.32345843 0.21661031 1.108
0.32540113 0.21661031 1.108
0.32852557 0.2173923 1.1120001
0.32928652 0.21661031 1.108
0.33122921 0.21661031 1.108
0.3343747 0.2173923 1.1120001
0.33632439 0.2173923 1.1120001
0.33705729 0.21661031 1.108
0.33899999 0.21661031 1.108
0.34001955 0.21602382 1.105
0.34195697 0.21602382 1.105
0.34389442 0.21602382 1.105
0.34677076 0.21661031 1.108
0.34871346 0.21661031 1.108
0.34970671 0.21602382 1.105
0.35164416 0.21602382 1.105
0.35454154 0.21661031 1.108
0.35648423 0.21661031 1.108
0.35842693 0.21661031 1.108
0.36036962 0.21661031 1.108
0.36231232 0.21661031 1.108
0.36557001 0.2173923 1.1120001
0.36751971 0.2173923 1.1120001
0.3694694 0.2173923 1.1120001
0.37141913 0.2173923 1.1120001
0.37202576 0.21661031 1.108
0.37396845 0.21661031 1.108
0.37591115 0.21661031 1.108
-0.12654947 0.23531924 1.1930001
-0.12404044 0.23453026 1.189
-0.12154545 0.23374125 1.1850001
-0.11946775 0.23374125 1.1850001
-0.11699379 0.23295225 1.1810001
-0.1042155 0.23216325 1.177
-0.10215183 0.23216325 1.177
-0.054291967 0.22210349 1.126
-0.052178323 0.22151175 1.123
-0.050030489 0.22072275 1.1190001
-0.048068509 0.22072275 1.1190001
-0.043986749 0.21993375 1.115
-0.041918691 0.21934199 1.1120001
-0.039825212 0.21855299 1.108
-0.037882518 0.21855299 1.108
-0.035842516 0.21796125 1.105
-0.02014054 0.21579149 1.0940001
-0.018222393 0.21579149 1.0940001
-0.016244633 0.21500249 1.09
-0.00095030665 0.213819 1.0840001
0.00095030665 0.213819 1.0840001
0.0028404 0.21303 1.08
0.0047208499 0.21243826 1.077
0.0065846434 0.21164925 1.0730001
0.0084659699 0.21164925 1.0730001
0.010347296 0.21164925 1.0730001
0.01410995 0.21164925 1.0730001
0.015946567 0.2110575 1.0700001
0.017772663 0.21046574 1.067
0.05384399 0.20533724 1.041
0.055669211 0.20533724 1.041
0.057494428 0.20533724 1.041
0.059148699 0.2047455 1.0380001
0.06114487 0.20533724 1.041
0.062970087 0.20533724 1.041
0.064795308 0.20533724 1.041
0.066620529 0.20533724 1.041
0.068642996 0.205929 1.044
0.10124273 0.20158949 1.0220001
0.10273218 0.20099775 1.0190001
0.10451883 0.20099775 1.0190001
0.1059925 0.200406 1.016
0.10777389 0.200406 1.016
0.10955528 0.200406 1.016
0.11035042 0.19863075 1.0070001
0.11211602 0.19863075 1.0070001
0.11354236 0.198039 1.0040001
0.1153027 0.198039 1.0040001
0.11741284 0.19863075 1.0070001
0.11917845 0.19863075 1.0070001
0.12094405 0.19863075 1.0070001
0.12447527 0.19863075 1.0070001
0.20038672 0.22210349 1.126
0.20236097 0.22210349 1.126
0.20506109 0.22289249 1.13
0.20630947 0.22210349 1.126
0.20902362 0.22289249 1.13
0.21025798 0.22210349 1.126
0.21223223 0.22210349 1.126
0.21420649 0.22210349 1.126
0.21771666 0.22368149 1.1340001
0.21970494 0.22368149 1.1340001
0.23045638 0.2244705 1.138
0.23163462 0.22368149 1.1340001
0.23279883 0.22289249 1.13
0.23561119 0.22368149 1.1340001
0.23676136 0.22289249 1.13
0.23789753 0.22210349 1.126
0.24072389 0.22289249 1.13
0.24184602 0.22210349 1.126
0.24317068 0.22151175 1.123
0.24426651 0.22072275 1.1190001
0.24534832 0.21993375 1.115
0.24819046 0.22072275 1.1190001
0.25015244 0.22072275 1.1190001
0.25211442 0.22072275 1.1190001
0.25407642 0.22072275 1.1190001
0.2560384 0.22072275 1.1190001
0.25707811 0.21993375 1.115
0.25903308 0.21993375 1.115
0.26098806 0.21993375 1.115
0.26223555 0.21934199 1.1120001
0.26323494 0.21855299 1.108
0.26517764 0.21855299 1.108
0.26712033 0.21855299 1.108
0.26906303 0.21855299 1.108
0.27198407 0.21934199 1.1120001
0.2739338 0.21934199 1.1120001
0.2758835 0.21934199 1.1120001
0.27783319 0.21934199 1.1120001
0.27978289 0.21934199 1.1120001
0.28173262 0.21934199 1.1120001
0.28368232 0.21934199 1.1120001
0.28563201 0.21934199 1.1120001
0.28758174 0.21934199 1.1120001
0.28848997 0.21855299 1.108
0.29043266 0.21855299 1.108
0.29237536 0.21855299 1.108
0.29431805 0.21855299 1.108
0.29626074 0.21855299 1.108
0.29820344 0.21855299 1.108
0.29933345 0.21796125 1.105
0.30127087 0.21796125 1.105
0.30211073 0.21717225 1.1010001
0.30404115 0.21717225 1.1010001
0.30597156 0.21717225 1.1010001
0.30678335 0.21638325 1.097
0.30870676 0.21638325 1.097
0.31063017 0.21638325 1.097
0.31255358 0.21638325 1.097
0.314477 0.21638325 1.097
0.31755409 0.21717225 1.1010001
0.3194845 0.21717225 1.1010001
0.32141492 0.21717225 1.1010001
0.32334533 0.21717225 1.1010001
0.3264575 0.21796125 1.105
0.32720619 0.21717225 1.1010001
0.32913661 0.21717225 1.1010001
0.33226982 0.21796125 1.105
0.33420724 0.21796125 1.105
0.33492786 0.21717225 1.1010001
0.3368583 0.21717225 1.1010001
0.33878872 0.21717225 1.1010001
0.34071913 0.21717225 1.1010001
0.34264955 0.21717225 1.1010001
0.34457996 0.21717225 1.1010001
0.34651038 0.21717225 1.1010001
0.3484408 0.21717225 1.1010001
0.35037124 0.21717225 1.1010001
0.35358158 0.21796125 1.105
0.35648423 0.21855299 1.108
0.35842693 0.21855299 1.108
0.36036962 0.21855299 1.108
0.36133131 0.21796125 1.105
0.36425501 0.21855299 1.108
0.36619771 0.21855299 1.108
0.36814037 0.21855299 1.108
0.36908105 0.21796125 1.105
0.37101847 0.21796125 1.105
0.37295592 0.21796125 1.105
0.37489334 0.21796125 1.105
-0.12404044 0.23661496 1.189
-0.12195573 0.23661496 1.189
-0.11946775 0.23581895 1.1850001
-0.11699379 0.23502293 1.1810001
-0.11492311 0.23502293 1.1810001
-0.10627918 0.23422693 1.177
-0.1042155 0.23422693 1.177
-0.10215183 0.23422693 1.177
-0.099748008 0.23343091 1.1730001
-0.056266218 0.22407775 1.126
-0.054291967 0.22407775 1.126
-0.052178323 0.22348075 1.123
-0.048068509 0.22268473 1.1190001
-0.045941718 0.22188872 1.115
-0.0438684 0.22129171 1.1120001
-0.041918691 0.22129171 1.1120001
-0.039825212 0.22049569 1.108
-0.029921509 0.21910267 1.1010001
-0.02014054 0.21770965 1.0940001
-0.018155767 0.21691363 1.09
-0.00094679999 0.21492361 1.08
0.00094416999 0.21432659 1.077
0.00283251 0.21432659 1.077
0.0047033168 0.21353057 1.0730001
0.0065846434 0.21353057 1.0730001
0.010318367 0.21293357 1.0700001
0.012194433 0.21293357 1.0700001
0.01403105 0.21233656 1.067
0.015901856 0.21233656 1.067
0.017772663 0.21233656 1.067
0.021433624 0.21154054 1.0630001
0.023297416 0.21154054 1.0630001
0.02516121 0.21154054 1.0630001
0.041304149 0.20835648 1.0470001
0.057494428 0.20716247 1.041
0.059319649 0.20716247 1.041
0.06114487 0.20716247 1.041
0.064608581 0.20656545 1.0380001
0.066428542 0.20656545 1.0380001
0.06844575 0.20716247 1.041
0.077947937 0.2033814 1.0220001
0.079739846 0.2033814 1.0220001
0.081531756 0.2033814 1.0220001
0.083323658 0.2033814 1.0220001
0.08561527 0.20457542 1.028
0.087162584 0.20397842 1.0250001
0.088959746 0.20397842 1.0250001
0.099158891 0.20278439 1.0190001
0.10064834 0.20218739 1.016
0.10242973 0.20218739 1.016
0.10421112 0.20218739 1.016
0.10567953 0.20159037 1.013
0.10745566 0.20159037 1.013
0.1089083 0.20099336 1.01
0.11035042 0.20039636 1.0070001
0.11211602 0.20039636 1.0070001
0.11354236 0.19979934 1.0040001
0.1153027 0.19979934 1.0040001
0.11741284 0.20039636 1.0070001
0.11917845 0.20039636 1.0070001
0.12094405 0.20039636 1.0070001
0.12307523 0.20099336 1.01
0.12447527 0.20039636 1.0070001
0.12624088 0.20039636 1.0070001
0.12838784 0.20099336 1.01
0.19841246 0.22407775 1.126
0.20038672 0.22407775 1.126
0.20236097 0.22407775 1.126
0.20433521 0.22407775 1.126
0.20630947 0.22407775 1.126
0.20828372 0.22407775 1.126
0.21025798 0.22407775 1.126
0.21223223 0.22407775 1.126
0.23561119 0.22566977 1.1340001
0.23676136 0.22487377 1.13
0.23874263 0.22487377 1.13
0.24157602 0.22566977 1.1340001
0.24270517 0.22487377 1.13
0.24317068 0.22348075 1.123
0.24468818 0.22129171 1.1120001
0.24730328 0.22188872 1.115
0.24925825 0.22188872 1.115
0.25121322 0.22188872 1.115
0.2531682 0.22188872 1.115
0.25512314 0.22188872 1.115
0.25638643 0.22129171 1.1120001
0.25740686 0.22049569 1.108
0.25934955 0.22049569 1.108
0.26129225 0.22049569 1.108
0.26252222 0.21989869 1.105
0.26445964 0.21989869 1.105
0.26543275 0.21910267 1.1010001
0.26833451 0.21989869 1.105
0.27027196 0.21989869 1.105
0.27294841 0.22049569 1.108
0.27489111 0.22049569 1.108
0.27608424 0.21989869 1.105
0.27802169 0.21989869 1.105
0.27995911 0.21989869 1.105
0.2808761 0.21910267 1.1010001
0.28383398 0.21989869 1.105
0.28577143 0.21989869 1.105
0.28666738 0.21910267 1.1010001
0.28859779 0.21910267 1.1010001
0.29052821 0.21910267 1.1010001
0.29245862 0.21910267 1.1010001
0.29438904 0.21910267 1.1010001
0.297396 0.21989869 1.105
0.2982499 0.21910267 1.1010001
0.30018032 0.21910267 1.1010001
0.30101314 0.21830666 1.097
0.30293655 0.21830666 1.097
0.30485997 0.21830666 1.097
0.30678335 0.21830666 1.097
0.30870676 0.21830666 1.097
0.31063017 0.21830666 1.097
0.31169882 0.21770965 1.0940001
0.31361699 0.21770965 1.0940001
0.31553513 0.21770965 1.0940001
0.31832379 0.21830666 1.097
0.31937143 0.21770965 1.0940001
0.32128957 0.21770965 1.0940001
0.32320771 0.21770965 1.0940001
0.32512584 0.21770965 1.0940001
0.32794082 0.21830666 1.097
0.32986423 0.21830666 1.097
0.33178765 0.21830666 1.097
0.33371106 0.21830666 1.097
0.33563447 0.21830666 1.097
0.33755788 0.21830666 1.097
0.33948126 0.21830666 1.097
0.34140468 0.21830666 1.097
0.34332809 0.21830666 1.097
0.3452515 0.21830666 1.097
0.34717491 0.21830666 1.097
0.34909829 0.21830666 1.097
0.35102171 0.21830666 1.097
0.35294512 0.21830666 1.097
0.35486853 0.21830666 1.097
0.35679194 0.21830666 1.097
0.35871536 0.21830666 1.097
0.36195374 0.21910267 1.1010001
0.36388418 0.21910267 1.1010001
0.3658146 0.21910267 1.1010001
0.36774501 0.21910267 1.1010001
0.36967543 0.21910267 1.1010001
0.37160584 0.21910267 1.1010001
0.37353626 0.21910267 1.1010001
0.37683079 0.21989869 1.105
0.37876821 0.21989869 1.105
0.38070565 0.21989869 1.105
-0.12404044 0.23869967 1.189
-0.12195573 0.23869967 1.189
-0.11946775 0.23789665 1.1850001
-0.11659754 0.23629059 1.177
-0.10627918 0.23629059 1.177
-0.1042155 0.23629059 1.177
-0.10215183 0.23629059 1.177
-0.099748008 0.23548757 1.1730001
-0.041918691 0.22324142 1.1120001
-0.039825212 0.22243838 1.108
-0.031851929 0.22103308 1.1010001
-0.029921509 0.22103308 1.1010001
-0.02799109 0.22103308 1.1010001
-0.022058686 0.2196278 1.0940001
-0.02014054 0.2196278 1.0940001
-0.018155767 0.21882476 1.09
-0.016244633 0.21882476 1.09
-0.01429405 0.2182225 1.087
-0.012388176 0.2182225 1.087
0.017706037 0.21340434 1.0630001
0.019569829 0.21340434 1.0630001
0.021373134 0.21280207 1.0600001
0.023231667 0.21280207 1.0600001
0.025090199 0.21280207 1.0600001
0.032432284 0.21219979 1.057
0.034188248 0.21159753 1.054
0.035899501 0.21079449 1.0500001
0.057328738 0.20838542 1.0380001
0.059319649 0.20898768 1.041
0.06096866 0.20838542 1.0380001
0.062788621 0.20838542 1.0380001
0.064359605 0.2075824 1.034
0.066172555 0.2075824 1.034
0.067788251 0.20698012 1.031
0.069595933 0.20698012 1.031
0.071195856 0.20637785 1.028
0.072998278 0.20637785 1.028
0.074582413 0.20577559 1.0250001
0.076156035 0.20517331 1.0220001
0.077947937 0.20517331 1.0220001
0.079505779 0.20457104 1.0190001
0.081531756 0.20517331 1.0220001
0.08307907 0.20457104 1.0190001
0.085365415 0.20577559 1.0250001
0.086907476 0.20517331 1.0220001
0.088959746 0.20577559 1.0250001
0.092554085 0.20577559 1.0250001
0.094075099 0.20517331 1.0220001
0.09765891 0.20517331 1.0220001
0.098866962 0.20396878 1.016
0.10064834 0.20396878 1.016
0.10212728 0.2033665 1.013
0.1035957 0.20276423 1.01
0.10567953 0.2033665 1.013
0.10745566 0.2033665 1.013
0.1089083 0.20276423 1.01
0.11002167 0.20155969 1.0040001
0.11178201 0.20155969 1.0040001
0.11354236 0.20155969 1.0040001
0.1153027 0.20155969 1.0040001
0.11741284 0.20216197 1.0070001
0.11917845 0.20216197 1.0070001
0.12094405 0.20216197 1.0070001
0.12270966 0.20216197 1.0070001
0.12447527 0.20216197 1.0070001
0.12624088 0.20216197 1.0070001
0.12800649 0.20216197 1.0070001
0.12977208 0.20216197 1.0070001
0.19643821 0.226052 1.126
0.19788383 0.22544974 1.123
0.19985282 0.22544974 1.123
0.20182182 0.22544974 1.123
0.20306493 0.2246467 1.1190001
0.20502691 0.2246467 1.1190001
0.20772879 0.22544974 1.123
0.20820394 0.22384368 1.115
0.21166678 0.22544974 1.123
0.25157878 0.22243838 1.108
0.25352147 0.22243838 1.108
0.25546417 0.22243838 1.108
0.25485137 0.22023006 1.097
0.25677478 0.22023006 1.097
0.2586982 0.22023006 1.097
0.26062161 0.22023006 1.097
0.26254502 0.22023006 1.097
0.2644684 0.22023006 1.097
0.26639181 0.22023006 1.097
0.26929358 0.22103308 1.1010001
0.27220938 0.22183612 1.105
0.27315444 0.22103308 1.1010001
0.27508485 0.22103308 1.1010001
0.27701527 0.22103308 1.1010001
0.27793226 0.22023006 1.097
0.27985567 0.22023006 1.097
0.28177908 0.22023006 1.097
0.28370249 0.22023006 1.097
0.28484479 0.2196278 1.0940001
0.28754929 0.22023006 1.097
0.2894727 0.22023006 1.097
0.29139611 0.22023006 1.097
0.29331952 0.22023006 1.097
0.29524294 0.22023006 1.097
0.29716632 0.22023006 1.097
0.29908973 0.22023006 1.097
0.30018994 0.2196278 1.0940001
0.30100349 0.21882476 1.09
0.30402625 0.2196278 1.0940001
0.30594438 0.2196278 1.0940001
0.30786255 0.2196278 1.0940001
0.30978069 0.2196278 1.0940001
0.31169882 0.2196278 1.0940001
0.31247029 0.21882476 1.09
0.31553513 0.2196278 1.0940001
0.31745327 0.2196278 1.0940001
0.31820369 0.21882476 1.09
0.32011482 0.21882476 1.09
0.32202595 0.21882476 1.09
0.32393709 0.21882476 1.09
0.32584822 0.21882476 1.09
0.32775936 0.21882476 1.09
0.32967049 0.21882476 1.09
0.33279845 0.2196278 1.0940001
0.33349276 0.21882476 1.09
0.33663473 0.2196278 1.0940001
0.33855289 0.2196278 1.0940001
0.34047103 0.2196278 1.0940001
0.34238917 0.2196278 1.0940001
0.34430733 0.2196278 1.0940001
0.34622547 0.2196278 1.0940001
0.34687069 0.21882476 1.09
0.34878182 0.21882476 1.09
0.35069296 0.21882476 1.09
0.35260409 0.21882476 1.09
0.35581622 0.2196278 1.0940001
0.36388418 0.22103308 1.1010001
0.36448556 0.22023006 1.097
0.36640897 0.22023006 1.097
0.37546667 0.22103308 1.1010001
0.37739712 0.22103308 1.1010001
0.37932754 0.22103308 1.1010001
-0.11946775 0.23997435 1.1850001
-0.11659754 0.23835427 1.177
-0.11453387 0.23835427 1.177
-0.11285242 0.23916431 1.1810001
-0.1042155 0.23835427 1.177
-0.10215183 0.23835427 1.177
-0.099748008 0.23754422 1.1730001
-0.031851929 0.22296351 1.1010001
-0.029921509 0.22296351 1.1010001
-0.02799109 0.22296351 1.1010001
-0.023976833 0.22154593 1.0940001
-0.022058686 0.22154593 1.0940001
-0.0200669 0.22073589 1.09
-0.018155767 0.22073589 1.09
-0.016199924 0.22012837 1.087
-0.01429405 0.22012837 1.087
-0.012353987 0.21952084 1.0840001
-0.0085212002 0.2187108 1.08
-0.0066276002 0.2187108 1.08
-0.0047208499 0.21810327 1.077
0.017656067 0.2146606 1.0600001
0.0195146 0.2146606 1.0600001
0.021312643 0.21405306 1.057
0.070988081 0.20757274 1.0250001
0.072785251 0.20757274 1.0250001
0.074145839 0.20635769 1.0190001
0.07771913 0.20635769 1.0190001
0.079505779 0.20635769 1.0190001
0.081292421 0.20635769 1.0190001
0.08307907 0.20635769 1.0190001
0.084865719 0.20635769 1.0190001
0.086652361 0.20635769 1.0190001
0.08843901 0.20635769 1.0190001
0.090225659 0.20635769 1.0190001
0.092283189 0.20696522 1.0220001
0.09379895 0.20635769 1.0190001
0.0955856 0.20635769 1.0190001
0.096798904 0.20514263 1.013
0.098575026 0.20514263 1.013
0.10035115 0.20514263 1.013
0.10212728 0.20514263 1.013
0.1035957 0.2045351 1.01
0.10536657 0.2045351 1.01
0.10713743 0.2045351 1.01
0.10858481 0.20392756 1.0070001
0.10969292 0.20271251 1.001
0.111448 0.20271251 1.001
0.11320309 0.20271251 1.001
0.11495817 0.20271251 1.001
0.11706305 0.20332004 1.0040001
0.1188234 0.20332004 1.0040001
0.12058374 0.20332004 1.0040001
0.12234409 0.20332004 1.0040001
0.12410444 0.20332004 1.0040001
0.12586479 0.20332004 1.0040001
0.12762514 0.20332004 1.0040001
0.12938549 0.20332004 1.0040001
0.12997022 0.20149745 0.99500006
0.13131765 0.20088992 0.99200004
0.13265456 0.20028239 0.98900002
0.19788383 0.22741874 1.123
0.19985282 0.22741874 1.123
0.20110294 0.22660869 1.1190001
0.20233905 0.22579865 1.115
0.20429401 0.22579865 1.115
0.20569405 0.22519112 1.1120001
0.20764376 0.22519112 1.1120001
0.20883954 0.22438107 1.108
0.21078223 0.22438107 1.108
0.25352147 0.22438107 1.108
0.25385022 0.22296351 1.1010001
0.25415444 0.22154593 1.0940001
0.25607258 0.22154593 1.0940001
0.25799072 0.22154593 1.0940001
0.25990888 0.22154593 1.0940001
0.26182702 0.22154593 1.0940001
0.26374516 0.22154593 1.0940001
0.26566333 0.22154593 1.0940001
0.26831523 0.22215347 1.097
0.27122402 0.22296351 1.1010001
0.27216205 0.22215347 1.097
0.27408546 0.22215347 1.097
0.27600884 0.22215347 1.097
0.27717218 0.22154593 1.0940001
0.27909034 0.22154593 1.0940001
0.28100848 0.22154593 1.0940001
0.28292662 0.22154593 1.0940001
0.28380328 0.22073589 1.09
0.28676292 0.22154593 1.0940001
0.28868106 0.22154593 1.0940001
0.28953668 0.22073589 1.09
0.29251736 0.22154593 1.0940001
0.2944355 0.22154593 1.0940001
0.29635367 0.22154593 1.0940001
0.29827181 0.22154593 1.0940001
0.29826918 0.22012837 1.087
0.30017504 0.22012837 1.087
0.30291462 0.22073589 1.09
0.30594438 0.22154593 1.0940001
0.30673689 0.22073589 1.09
0.30864802 0.22073589 1.09
0.31055915 0.22073589 1.09
0.31247029 0.22073589 1.09
0.31438142 0.22073589 1.09
0.31629255 0.22073589 1.09
0.31820369 0.22073589 1.09
0.31923378 0.22012837 1.087
0.32113966 0.22012837 1.087
0.32304552 0.22012837 1.087
0.32584822 0.22073589 1.09
0.32685727 0.22012837 1.087
0.32876316 0.22012837 1.087
0.33066902 0.22012837 1.087
0.3325749 0.22012837 1.087
0.33540389 0.22073589 1.09
0.33731502 0.22073589 1.09
0.33922616 0.22073589 1.09
0.34113729 0.22073589 1.09
0.34304842 0.22073589 1.09
0.34495956 0.22073589 1.09
0.34687069 0.22073589 1.09
0.34878182 0.22073589 1.09
0.34972775 0.22012837 1.087
0.35163364 0.22012837 1.087
0.35451522 0.22073589 1.09
0.35544538 0.22012837 1.087
0.35965249 0.22154593 1.0940001
0.36256215 0.22215347 1.097
0.36348879 0.22154593 1.0940001
0.36540693 0.22154593 1.0940001
0.36833239 0.22215347 1.097
0.37025577 0.22215347 1.097
0.37217918 0.22215347 1.097
-0.11699379 0.24123499 1.1810001
-0.11414463 0.23960088 1.1730001
-0.11247019 0.24041794 1.177
-0.041654818 0.22571099 1.105
-0.031851929 0.22489393 1.1010001
-0.029921509 0.22489393 1.1010001
-0.027889397 0.22407688 1.097
-0.025894979 0.22346409 1.0940001
-0.023976833 0.22346409 1.0940001
-0.021978034 0.22264703 1.09
-0.0200669 0.22264703 1.09
-0.018105797 0.22203425 1.087
-0.016199924 0.22203425 1.087
-0.0142546 0.22142145 1.0840001
-0.0123084 0.2206044 1.08
-0.0104148 0.2206044 1.08
-0.0084975297 0.21999161 1.077
-0.0066091898 0.21999161 1.077
-0.0047208499 0.21999161 1.077
0.00094066333 0.21917455 1.0730001
0.0028140999 0.21856177 1.0700001
0.017606096 0.21590634 1.057
0.019459371 0.21590634 1.057
0.021312643 0.21590634 1.057
0.032340232 0.21529356 1.054
0.0340585 0.2144765 1.0500001
0.035899501 0.2144765 1.0500001
0.03763267 0.21386372 1.0470001
0.039355319 0.21325092 1.044
0.042892668 0.21263812 1.041
0.044717889 0.21263812 1.041
0.04654311 0.21263812 1.041
0.050048899 0.21202534 1.0380001
0.05186886 0.21202534 1.0380001
0.05368882 0.21202534 1.0380001
0.079271704 0.20753154 1.016
0.081053093 0.20753154 1.016
0.082834482 0.20753154 1.016
0.084366016 0.20691876 1.013
0.08588703 0.20630597 1.01
0.087657899 0.20630597 1.01
0.089163139 0.20569317 1.0070001
0.090657853 0.20508039 1.0040001
0.09269435 0.20569317 1.0070001
0.094459958 0.20569317 1.0070001
0.09622556 0.20569317 1.0070001
0.098283097 0.20630597 1.01
0.10005397 0.20630597 1.01
0.10182483 0.20630597 1.01
0.10328799 0.20569317 1.0070001
0.1050536 0.20569317 1.0070001
0.10650098 0.20508039 1.0040001
0.10793783 0.20446759 1.001
0.10969292 0.20446759 1.001
0.111114 0.2038548 0.99800003
0.11286382 0.2038548 0.99800003
0.11461364 0.2038548 0.99800003
0.11671326 0.20446759 1.001
0.11846835 0.20446759 1.001
0.12022343 0.20446759 1.001
0.12197852 0.20446759 1.001
0.12373361 0.20446759 1.001
0.1254887 0.20446759 1.001
0.12724379 0.20446759 1.001
0.12861226 0.2038548 0.99800003
0.12957835 0.20262922 0.99200004
0.13065577 0.20160791 0.98700005
0.13238631 0.20160791 0.98700005
0.15264958 0.20324202 0.99500006
0.19594552 0.22714083 1.1120001
0.19789523 0.22714083 1.1120001
0.19984493 0.22714083 1.1120001
0.20179464 0.22714083 1.1120001
0.20301145 0.22632377 1.108
0.20495415 0.22632377 1.108
0.20633665 0.22571099 1.105
0.20827408 0.22571099 1.105
0.26062161 0.22407688 1.097
0.26254502 0.22407688 1.097
0.2644684 0.22407688 1.097
0.26566333 0.22346409 1.0940001
0.26831523 0.22407688 1.097
0.27122402 0.22489393 1.1010001
0.27216205 0.22407688 1.097
0.27408546 0.22407688 1.097
0.27600884 0.22407688 1.097
0.27717218 0.22346409 1.0940001
0.27806988 0.22264703 1.09
0.27921045 0.22203425 1.087
0.28111631 0.22203425 1.087
0.28224108 0.22142145 1.0840001
0.28571442 0.22264703 1.09
0.28762555 0.22264703 1.09
0.2868804 0.2206044 1.08
0.28690231 0.21917455 1.0730001
0.29066759 0.2206044 1.08
0.29445744 0.22203425 1.087
0.29636329 0.22203425 1.087
0.29744598 0.22142145 1.0840001
0.298242 0.2206044 1.08
0.30124721 0.22142145 1.0840001
0.30398679 0.22203425 1.087
0.30589268 0.22203425 1.087
0.30694905 0.22142145 1.0840001
0.30884966 0.22142145 1.0840001
0.31161028 0.22203425 1.087
0.31351617 0.22203425 1.087
0.31542203 0.22203425 1.087
0.31732792 0.22203425 1.087
0.31923378 0.22203425 1.087
0.32113966 0.22203425 1.087
0.32304552 0.22203425 1.087
0.32495141 0.22203425 1.087
0.32595518 0.22142145 1.0840001
0.3278558 0.22142145 1.0840001
0.32975641 0.22142145 1.0840001
0.33165702 0.22142145 1.0840001
0.33448076 0.22203425 1.087
0.33638665 0.22203425 1.087
0.33829251 0.22203425 1.087
0.3401984 0.22203425 1.087
0.34116009 0.22142145 1.0840001
0.34401014 0.22203425 1.087
0.345916 0.22203425 1.087
0.34782189 0.22203425 1.087
0.34876254 0.22142145 1.0840001
0.35544538 0.22203425 1.087
0.35833749 0.22264703 1.09
0.36157066 0.22346409 1.0940001
0.36348879 0.22346409 1.0940001
0.36540693 0.22346409 1.0940001
0.3673251 0.22346409 1.0940001
0.36924323 0.22346409 1.0940001
0.37217918 0.22407688 1.097
0.37410259 0.22407688 1.097
-0.11247019 0.24248162 1.177
-0.11040653 0.24248162 1.177
-0.10834285 0.24248162 1.177
-0.029812803 0.22600028 1.097
-0.027889397 0.22600028 1.097
-0.025894979 0.22538224 1.0940001
-0.023889167 0.22455816 1.09
-0.021978034 0.22455816 1.09
-0.020011669 0.22394012 1.087
-0.018105797 0.22394012 1.087
-0.016155213 0.22332206 1.0840001
-0.014202 0.222498 1.08
-0.0084975297 0.22187994 1.077
-0.0066091898 0.22187994 1.077
-0.0047033168 0.22105588 1.0730001
0.00093803334 0.22043782 1.0700001
0.00280621 0.21981978 1.067
0.0046770168 0.21981978 1.067
0.019459371 0.21775961 1.057
0.021252153 0.21714157 1.054
0.023100166 0.21714157 1.054
0.032340232 0.21714157 1.054
0.0340585 0.2163175 1.0500001
0.035899501 0.2163175 1.0500001
0.03763267 0.21569945 1.0470001
0.046408981 0.2138453 1.0380001
0.048228938 0.2138453 1.0380001
0.050048899 0.2138453 1.0380001
0.082345299 0.20807683 1.01
0.084116168 0.20807683 1.01
0.085631922 0.20745878 1.0070001
0.087397531 0.20745878 1.0070001
0.089163139 0.20745878 1.0070001
0.090657853 0.20684074 1.0040001
0.092418201 0.20684074 1.0040001
0.094178542 0.20684074 1.0040001
0.095938891 0.20684074 1.0040001
0.09769924 0.20684074 1.0040001
0.099459589 0.20684074 1.0040001
0.10121993 0.20684074 1.0040001
0.10298028 0.20684074 1.0040001
0.10474063 0.20684074 1.0040001
0.10618274 0.20622268 1.001
0.10761434 0.20560463 0.99800003
0.10936417 0.20560463 0.99800003
0.11077999 0.20498659 0.99500006
0.11252455 0.20498659 0.99500006
0.11426912 0.20498659 0.99500006
0.11601368 0.20498659 0.99500006
0.1181133 0.20560463 0.99800003
0.11950281 0.20498659 0.99500006
0.12124738 0.20498659 0.99500006
0.12262112 0.20436853 0.99200004
0.12436043 0.20436853 0.99200004
0.12609974 0.20436853 0.99200004
0.12822565 0.20498659 0.99500006
0.12957835 0.20436853 0.99200004
0.13065577 0.20333844 0.98700005
0.13238631 0.20333844 0.98700005
0.13411684 0.20333844 0.98700005
0.15090501 0.20498659 0.99500006
0.15264958 0.20498659 0.99500006
0.15392864 0.20436853 0.99200004
0.15613872 0.20498659 0.99500006
0.15788329 0.20498659 0.99500006
0.15914656 0.20436853 0.99200004
0.16137241 0.20498659 0.99500006
0.16262518 0.20436853 0.99200004
0.16436447 0.20436853 0.99200004
0.17009525 0.20498659 0.99500006
0.17183982 0.20498659 0.99500006
0.17358439 0.20498659 0.99500006
0.17480032 0.20436853 0.99200004
0.1776074 0.20560463 0.99800003
0.17935723 0.20560463 0.99800003
0.18110706 0.20560463 0.99800003
0.18285689 0.20560463 0.99800003
0.18516164 0.20622268 1.001
0.18691672 0.20622268 1.001
0.18867181 0.20622268 1.001
0.1904269 0.20622268 1.001
0.19160601 0.20560463 0.99800003
0.19754456 0.2027204 0.98400003
0.26062161 0.22600028 1.097
0.26254502 0.22600028 1.097
0.26374516 0.22538224 1.0940001
0.26566333 0.22538224 1.0940001
0.26758146 0.22538224 1.0940001
0.26284835 0.21981978 1.067
0.27141774 0.22538224 1.0940001
0.2733359 0.22538224 1.0940001
0.27525404 0.22538224 1.0940001
0.2753987 0.22394012 1.087
0.27730456 0.22394012 1.087
0.27741238 0.222498 1.08
0.27853015 0.22187994 1.077
0.28041849 0.22187994 1.077
0.28230682 0.22187994 1.077
0.28313968 0.22105588 1.0730001
0.28502098 0.22105588 1.0730001
0.28690231 0.22105588 1.0730001
0.28878364 0.22105588 1.0730001
0.29174852 0.22187994 1.077
0.29363686 0.22187994 1.077
0.29552519 0.22187994 1.077
0.29741356 0.22187994 1.077
0.29930189 0.22187994 1.077
0.30119023 0.22187994 1.077
0.3039228 0.222498 1.08
0.30581641 0.222498 1.08
0.30770999 0.222498 1.08
0.31075028 0.22332206 1.0840001
0.31265089 0.22332206 1.0840001
0.3145515 0.22332206 1.0840001
0.31645212 0.22332206 1.0840001
0.31835273 0.22332206 1.0840001
0.32025334 0.22332206 1.0840001
0.32215396 0.22332206 1.0840001
0.32405457 0.22332206 1.0840001
0.32475239 0.222498 1.08
0.326646 0.222498 1.08
0.32853961 0.222498 1.08
0.33043319 0.222498 1.08
0.3323268 0.222498 1.08
0.33422041 0.222498 1.08
0.33611399 0.222498 1.08
0.3380076 0.222498 1.08
0.33990121 0.222498 1.08
0.34179479 0.222498 1.08
0.34496132 0.22332206 1.0840001
0.34686193 0.22332206 1.0840001
0.34876254 0.22332206 1.0840001
0.35066316 0.22332206 1.0840001
0.35256377 0.22332206 1.0840001
0.35446438 0.22332206 1.0840001
0.35833749 0.22455816 1.09
0.36024863 0.22455816 1.09
0.36215976 0.22455816 1.09
0.36407089 0.22455816 1.09
0.36598203 0.22455816 1.09
0.36789316 0.22455816 1.09
0.37116137 0.22538224 1.0940001
0.37307954 0.22538224 1.0940001
0.37499768 0.22538224 1.0940001
-0.10871105 0.24537636 1.1810001
-0.07058394 0.23561119 1.1340001
-0.045653295 0.23020916 1.108
