# .PCD v0.7 - Point Cloud Data file format
VERSION 0.7
FIELDS x y z
SIZE 4 4 4
TYPE F F F
COUNT 1 1 1
WIDTH 1380
HEIGHT 1
VIEWPOINT 0 0 0 1 0 0 0
POINTS 1380
DATA ascii
-0.082056001 0.063821331 0.80000001
-0.080451697 0.063661776 0.79800004
-0.068564102 0.063023567 0.79000002
-0.064327173 0.062943786 0.78900003
-0.06278424 0.06278424 0.78700006
-0.061404362 0.06278424 0.78700006
-0.054089457 0.062305577 0.78100002
-0.12193294 0.067099191 0.82300001
-0.12048994 0.067099191 0.82300001
-0.11875765 0.066936128 0.82100004
-0.11760396 0.067099191 0.82300001
-0.11587868 0.066936128 0.82100004
-0.11443919 0.066936128 0.82100004
-0.1129997 0.066936128 0.82100004
-0.11128845 0.066773072 0.81900007
-0.10985247 0.066773072 0.81900007
-0.10815173 0.066610008 0.81700003
-0.10671926 0.066610008 0.81700003
-0.10502905 0.066446953 0.81500006
-0.10360008 0.066446953 0.81500006
-0.098582044 0.06595777 0.80900002
-0.097163595 0.06595777 0.80900002
-0.095508449 0.065794706 0.80700004
-0.091037452 0.06563165 0.80500007
-0.089626014 0.06563165 0.80500007
-0.088214584 0.06563165 0.80500007
-0.086587489 0.065468587 0.80300003
-0.085073486 0.065387063 0.80200005
-0.082056001 0.065223999 0.80000001
-0.080451697 0.065060936 0.79800004
-0.079052538 0.065060936 0.79800004
-0.070126317 0.064571761 0.79200006
-0.068737678 0.064571761 0.79200006
-0.067178965 0.064408697 0.79000002
-0.064327173 0.064327173 0.78900003
-0.062943786 0.064327173 0.78900003
-0.061404362 0.06416411 0.78700006
-0.057119217 0.064001046 0.78500003
-0.055600829 0.06383799 0.78300005
-0.054227971 0.06383799 0.78300005
-0.052855108 0.06383799 0.78300005
-0.12193294 0.068542182 0.82300001
-0.12048994 0.068542182 0.82300001
-0.11904695 0.068542182 0.82300001
-0.11760396 0.068542182 0.82300001
-0.11616096 0.068542182 0.82300001
-0.11443919 0.068375617 0.82100004
-0.1129997 0.068375617 0.82100004
-0.11156022 0.068375617 0.82100004
-0.11012073 0.068375617 0.82100004
-0.10841649 0.068209052 0.81900007
-0.10671926 0.068042479 0.81700003
-0.10360008 0.067875914 0.81500006
-0.10217112 0.067875914 0.81500006
-0.10049493 0.067709349 0.81300002
-0.098825753 0.067542784 0.81100005
-0.097163595 0.067376219 0.80900002
-0.095745146 0.067376219 0.80900002
-0.094093509 0.067209646 0.80700004
-0.091263629 0.067209646 0.80700004
-0.08984869 0.067209646 0.80700004
-0.08843375 0.067209646 0.80700004
-0.086803153 0.067043081 0.80500007
-0.08517956 0.066876516 0.80300003
-0.082261138 0.066793233 0.80200005
-0.080653332 0.066626668 0.80000001
-0.079250664 0.066626668 0.80000001
-0.070303403 0.066126965 0.79400003
-0.068911262 0.066126965 0.79400003
-0.067349039 0.0659604 0.79200006
-0.062943786 0.065710552 0.78900003
-0.058644615 0.065543979 0.78700006
-0.057119217 0.065377414 0.78500003
-0.055600829 0.065210849 0.78300005
-0.054227971 0.065210849 0.78300005
0.16681302 0.058048483 0.69700003
0.16803508 0.058048483 0.69700003
0.20259942 0.057798631 0.69400001
-0.12048994 0.069985174 0.82300001
-0.11904695 0.069985174 0.82300001
-0.11760396 0.069985174 0.82300001
-0.11616096 0.069985174 0.82300001
-0.11471797 0.069985174 0.82300001
-0.1129997 0.069815099 0.82100004
-0.11183199 0.069985174 0.82300001
-0.11012073 0.069815099 0.82100004
-0.10868124 0.069815099 0.82100004
-0.10698051 0.069645032 0.81900007
-0.10385431 0.069474958 0.81700003
-0.10242184 0.069474958 0.81700003
-0.10074215 0.069304883 0.81500006
-0.099069469 0.069134809 0.81300002
-0.097403802 0.068964735 0.81100005
-0.095981851 0.068964735 0.81100005
-0.094326705 0.06879466 0.80900002
-0.091489807 0.06879466 0.80900002
-0.08984869 0.068624586 0.80700004
-0.08843375 0.068624586 0.80700004
-0.08701881 0.068624586 0.80700004
-0.08517956 0.068284445 0.80300003
-0.082261138 0.068199404 0.80200005
-0.080854967 0.068199404 0.80200005
-0.079250664 0.068029329 0.80000001
-0.070480496 0.067689188 0.79600006
-0.068911262 0.067519113 0.79400003
-0.067349039 0.067349039 0.79200006
-0.058644615 0.066923857 0.78700006
-0.057264742 0.066923857 0.78700006
-0.055742849 0.066753782 0.78500003
0.16705234 0.059355594 0.69800001
0.16803508 0.059270557 0.69700003
0.20318328 0.05918552 0.69600004
-0.11904695 0.071428172 0.82300001
-0.11760396 0.071428172 0.82300001
-0.11471797 0.071428172 0.82300001
-0.1129997 0.071254589 0.82100004
-0.11183199 0.071428172 0.82300001
-0.11038899 0.071428172 0.82300001
-0.10868124 0.071254589 0.82100004
-0.10698051 0.071081012 0.81900007
-0.10528679 0.070907429 0.81700003
-0.10410855 0.071081012 0.81900007
-0.10267257 0.071081012 0.81900007
-0.10098937 0.070907429 0.81700003
-0.099313185 0.070733853 0.81500006
-0.097644009 0.070560269 0.81300002
-0.096218549 0.070560269 0.81300002
-0.094326705 0.070213109 0.80900002
-0.092908256 0.070213109 0.80900002
-0.091489807 0.070213109 0.80900002
-0.090071365 0.070213109 0.80900002
-0.08843375 0.070039533 0.80700004
-0.082261138 0.069605581 0.80200005
-0.080854967 0.069605581 0.80200005
-0.079250664 0.069431998 0.80000001
-0.075042665 0.069431998 0.80000001
-0.073639996 0.069431998 0.80000001
-0.070480496 0.069084838 0.79600006
-0.068911262 0.068911262 0.79400003
-0.067519113 0.068911262 0.79400003
-0.0602533 0.068564102 0.79000002
-0.058793649 0.06847731 0.78900003
-0.057264742 0.068303727 0.78700006
-0.055884868 0.068303727 0.78700006
-0.11327498 0.072871163 0.82300001
-0.11183199 0.072871163 0.82300001
-0.11038899 0.072871163 0.82300001
-0.108946 0.072871163 0.82300001
-0.10724176 0.072694078 0.82100004
-0.10554453 0.072516993 0.81900007
-0.10410855 0.072516993 0.81900007
-0.10267257 0.072516993 0.81900007
-0.10098937 0.0723399 0.81700003
-0.099556893 0.0723399 0.81700003
-0.097884215 0.072162814 0.81500006
-0.096218549 0.071985729 0.81300002
-0.094559893 0.071808644 0.81100005
-0.093137942 0.071808644 0.81100005
-0.091715991 0.071808644 0.81100005
-0.090071365 0.071631558 0.80900002
-0.088652916 0.071631558 0.80900002
-0.08701881 0.071454473 0.80700004
-0.08560387 0.071454473 0.80700004
-0.083980285 0.07127738 0.80500007
-0.08236371 0.071100295 0.80300003
-0.080955781 0.071100295 0.80300003
-0.079448789 0.071011752 0.80200005
-0.076445334 0.070834666 0.80000001
-0.075042665 0.070834666 0.80000001
-0.070657581 0.070657581 0.79800004
-0.069084838 0.070480496 0.79600006
-0.067689188 0.070480496 0.79600006
-0.061794478 0.070126317 0.79200006
-0.060405839 0.070126317 0.79200006
-0.058868166 0.069949232 0.79000002
-0.05741027 0.069860689 0.78900003
-0.056026891 0.069860689 0.78900003
-0.054504998 0.069683604 0.78700006
-0.053125124 0.069683604 0.78700006
0.22758968 0.061626159 0.69600004
-0.11065725 0.074494749 0.82500005
-0.10921075 0.074494749 0.82500005
-0.107503 0.074314155 0.82300001
-0.10580227 0.07413356 0.82100004
-0.10436279 0.07413356 0.82100004
-0.1029233 0.07413356 0.82100004
-0.10123659 0.073952973 0.81900007
-0.099556893 0.073772378 0.81700003
-0.097884215 0.073591784 0.81500006
-0.096455246 0.073591784 0.81500006
-0.094793089 0.073411189 0.81300002
-0.093367629 0.073411189 0.81300002
-0.091715991 0.073230594 0.81100005
-0.090294033 0.073230594 0.81100005
-0.088652916 0.07305 0.80900002
-0.087234467 0.07305 0.80900002
-0.08560387 0.072869413 0.80700004
-0.084188931 0.072869413 0.80700004
-0.082568847 0.072688818 0.80500007
-0.081157416 0.072688818 0.80500007
-0.076636449 0.07241793 0.80200005
-0.075230271 0.07241793 0.80200005
-0.0738241 0.07241793 0.80200005
-0.07241793 0.07241793 0.80200005
-0.070834666 0.072237335 0.80000001
-0.069258422 0.072056741 0.79800004
-0.067689188 0.071876146 0.79600006
-0.061950527 0.071695551 0.79400003
-0.060558379 0.071695551 0.79400003
-0.0590172 0.071514957 0.79200006
-0.054643508 0.071244068 0.78900003
-0.045873336 0.070521697 0.78100002
0.22791667 0.062936775 0.69700003
-0.11065725 0.07594125 0.82500005
-0.10921075 0.07594125 0.82500005
-0.107503 0.075757146 0.82300001
-0.10606001 0.075757146 0.82300001
-0.10436279 0.075573049 0.82100004
-0.1029233 0.075573049 0.82100004
-0.10123659 0.075388953 0.81900007
-0.099800609 0.075388953 0.81900007
-0.098124422 0.075204849 0.81700003
-0.096455246 0.075020753 0.81500006
-0.095026284 0.075020753 0.81500006
-0.093367629 0.074836649 0.81300002
-0.091942169 0.074836649 0.81300002
-0.090294033 0.074652553 0.81100005
-0.088872083 0.074652553 0.81100005
-0.087234467 0.074468449 0.80900002
-0.085816026 0.074468449 0.80900002
-0.084397577 0.074468449 0.80900002
-0.082773991 0.074284352 0.80700004
-0.076732002 0.073916152 0.80300003
-0.075230271 0.0738241 0.80200005
-0.073916152 0.073916152 0.80300003
-0.07241793 0.0738241 0.80200005
-0.071011752 0.0738241 0.80200005
-0.069431998 0.073639996 0.80000001
-0.067859262 0.0734559 0.79800004
-0.061950527 0.0730877 0.79400003
-0.060558379 0.0730877 0.79400003
-0.059166234 0.0730877 0.79400003
-0.054643508 0.072627448 0.78900003
-0.11092551 0.077575356 0.82700002
-0.10921075 0.07738775 0.82500005
-0.10776425 0.07738775 0.82500005
-0.10606001 0.077200145 0.82300001
-0.10461701 0.077200145 0.82300001
-0.10317402 0.077200145 0.82300001
-0.10148381 0.077012539 0.82100004
-0.099800609 0.076824926 0.81900007
-0.098124422 0.07663732 0.81700003
-0.095026284 0.076449715 0.81500006
-0.093597315 0.076449715 0.81500006
-0.092168346 0.076449715 0.81500006
-0.090516709 0.076262109 0.81300002
-0.089091249 0.076262109 0.81300002
-0.087450132 0.076074503 0.81100005
-0.086028174 0.076074503 0.81100005
-0.084397577 0.075886898 0.80900002
-0.082979128 0.075886898 0.80900002
-0.081359051 0.075699292 0.80700004
-0.076732002 0.075324073 0.80300003
-0.075230271 0.075230271 0.80200005
-0.073916152 0.075324073 0.80300003
-0.072508223 0.075324073 0.80300003
-0.071011752 0.075230271 0.80200005
-0.069605581 0.075230271 0.80200005
-0.068029329 0.075042665 0.80000001
-0.060558379 0.074479848 0.79400003
-0.056097899 0.074104629 0.79000002
-0.054643508 0.074010827 0.78900003
-0.036148474 0.072978996 0.77800006
-0.03478438 0.072978996 0.77800006
0.043112714 0.06885165 0.73400003
0.044339169 0.06875784 0.73300004
0.045499876 0.068570234 0.73100001
0.20621479 0.065474726 0.69800001
0.20743862 0.065474726 0.69800001
0.22058423 0.065380923 0.69700003
-0.11092551 0.079025365 0.82700002
-0.1094755 0.079025365 0.82700002
-0.10776425 0.078834251 0.82500005
-0.10461701 0.078643136 0.82300001
-0.10317402 0.078643136 0.82300001
-0.10173103 0.078643136 0.82300001
-0.10004432 0.078452021 0.82100004
-0.098124422 0.078069799 0.81700003
-0.096691951 0.078069799 0.81700003
-0.095026284 0.077878684 0.81500006
-0.093597315 0.077878684 0.81500006
-0.092168346 0.077878684 0.81500006
-0.090516709 0.077687569 0.81300002
-0.089091249 0.077687569 0.81300002
-0.087665789 0.077687569 0.81300002
-0.086028174 0.077496454 0.81100005
-0.084397577 0.077305339 0.80900002
-0.082979128 0.077305339 0.80900002
-0.081359051 0.077114232 0.80700004
-0.079944111 0.077114232 0.80700004
-0.076923117 0.076923117 0.80500007
-0.075324073 0.076732002 0.80300003
-0.074100249 0.076923117 0.80500007
-0.072508223 0.076732002 0.80300003
-0.071100295 0.076732002 0.80300003
-0.069605581 0.076636449 0.80200005
-0.068199404 0.076636449 0.80200005
-0.056239918 0.075680882 0.79200006
-0.054712765 0.075489767 0.79000002
-0.053327631 0.075489767 0.79000002
-0.050493371 0.075394213 0.78900003
-0.048985504 0.075203098 0.78700006
-0.036241401 0.0745342 0.78000003
-0.034873798 0.0745342 0.78000003
0.043112714 0.070138596 0.73400003
0.04439966 0.070138596 0.73400003
0.045686606 0.070138596 0.73400003
0.20680566 0.066889666 0.70000005
0.20743862 0.066698551 0.69800001
0.22058423 0.066602997 0.69700003
-0.11119377 0.080669992 0.82900006
-0.10974026 0.080669992 0.82900006
-0.1080255 0.080475368 0.82700002
-0.10631775 0.080280751 0.82500005
-0.10487125 0.080280751 0.82500005
-0.10342475 0.080280751 0.82500005
-0.10173103 0.080086127 0.82300001
-0.10028803 0.080086127 0.82300001
-0.098364629 0.079696886 0.81900007
-0.096691951 0.07950227 0.81700003
-0.095259473 0.07950227 0.81700003
-0.093827002 0.07950227 0.81700003
-0.092168346 0.079307653 0.81500006
-0.090739384 0.079307653 0.81500006
-0.089310415 0.079307653 0.81500006
-0.087665789 0.079113029 0.81300002
-0.086240329 0.079113029 0.81300002
-0.082979128 0.078723788 0.80900002
-0.081359051 0.078529172 0.80700004
-0.076923117 0.078334548 0.80500007
-0.075324073 0.078139931 0.80300003
-0.074100249 0.078334548 0.80500007
-0.071100295 0.078139931 0.80300003
-0.069692373 0.078139931 0.80300003
-0.068199404 0.078042619 0.80200005
-0.054712765 0.076874897 0.79000002
-0.053327631 0.076874897 0.79000002
-0.05187675 0.076777592 0.78900003
-0.050493371 0.076777592 0.78900003
-0.048985504 0.076582968 0.78700006
-0.04760563 0.076582968 0.78700006
0.18497755 0.068214312 0.70100003
-0.11319081 0.082519755 0.83300006
-0.11146203 0.082321629 0.83100003
-0.10974026 0.082123503 0.82900006
-0.10828675 0.082123503 0.82900006
-0.10657549 0.081925377 0.82700002
-0.10512548 0.081925377 0.82700002
-0.10342475 0.081727251 0.82500005
-0.10173103 0.081529126 0.82300001
-0.10028803 0.081529126 0.82300001
-0.098604836 0.081331 0.82100004
-0.096928649 0.081132866 0.81900007
-0.095492668 0.081132866 0.81900007
-0.093827002 0.080934741 0.81700003
-0.092394531 0.080934741 0.81700003
-0.090739384 0.080736615 0.81500006
-0.089310415 0.080736615 0.81500006
-0.075511687 0.079745986 0.80500007
-0.074284352 0.079944111 0.80700004
-0.07127738 0.079745986 0.80500007
-0.069692373 0.07954786 0.80300003
-0.068199404 0.079448789 0.80200005
-0.054851279 0.07845816 0.79200006
-0.053462639 0.07845816 0.79200006
-0.051942501 0.078260034 0.79000002
-0.050493371 0.078160971 0.78900003
-0.049109988 0.078160971 0.78900003
-0.04760563 0.077962846 0.78700006
0.1855053 0.069641523 0.70300001
0.1867379 0.069641523 0.70300001
0.18989389 0.069443397 0.70100003
0.19112298 0.069443397 0.70100003
-0.11319081 0.083980285 0.83300006
-0.11173029 0.083980285 0.83300006
-0.10537972 0.083577015 0.82900006
-0.10367548 0.083375379 0.82700002
-0.10197825 0.083173752 0.82500005
-0.10028803 0.082972117 0.82300001
-0.098845042 0.082972117 0.82300001
-0.097165346 0.082770482 0.82100004
-0.095492668 0.082568847 0.81900007
-0.094056688 0.082568847 0.81900007
-0.092620708 0.082568847 0.81900007
-0.069692373 0.080955781 0.80300003
-0.053462639 0.079846799 0.79200006
-0.051942501 0.079645164 0.79000002
-0.050493371 0.079544351 0.78900003
-0.049109988 0.079544351 0.78900003
-0.047726609 0.079544351 0.78900003
-0.039126508 0.078939453 0.78300005
-0.037657216 0.078737818 0.78100002
-0.036287863 0.078737818 0.78100002
-0.11346258 0.085645951 0.83500004
-0.11173029 0.085440807 0.83300006
-0.10367548 0.084825389 0.82700002
-0.10197825 0.084620252 0.82500005
-0.10053175 0.084620252 0.82500005
-0.098845042 0.084415108 0.82300001
-0.097402051 0.084415108 0.82300001
-0.095725864 0.084209971 0.82100004
-0.094056688 0.084004827 0.81900007
-0.092620708 0.084004827 0.81900007
-0.083594553 0.083594553 0.81500006
-0.081963949 0.083389409 0.81300002
-0.080340363 0.083184272 0.81100005
-0.057919614 0.08164572 0.79600006
-0.050557368 0.081030302 0.79000002
-0.049109988 0.08092773 0.78900003
-0.039126508 0.080312312 0.78300005
-0.037753649 0.080312312 0.78300005
0.19783123 0.072106712 0.70300001
-0.11346258 0.087109983 0.83500004
-0.11173029 0.086901337 0.83300006
-0.10222547 0.086275399 0.82700002
-0.10053175 0.086066753 0.82500005
-0.099085249 0.086066753 0.82500005
-0.097402051 0.085858099 0.82300001
-0.095959052 0.085858099 0.82300001
-0.094516061 0.085858099 0.82300001
-0.085023515 0.085023515 0.81500006
-0.083594553 0.085023515 0.81500006
-0.081963949 0.084814869 0.81300002
-0.080538489 0.084814869 0.81300002
-0.066793233 0.083667316 0.80200005
-0.065387063 0.083667316 0.80200005
-0.063980885 0.083667316 0.80200005
-0.062418666 0.083458669 0.80000001
-0.061016001 0.083458669 0.80000001
-0.049172234 0.082415432 0.79000002
-0.0294034 0.081372201 0.78000003
0.0086500701 0.07918141 0.75900006
0.0099545503 0.078972764 0.75700003
-0.11602771 0.089422628 0.84300005
-0.11373435 0.08878617 0.83700001
-0.11199855 0.088574015 0.83500004
-0.10077547 0.087725401 0.82700002
-0.099085249 0.087513253 0.82500005
-0.097638749 0.087513253 0.82500005
-0.095959052 0.087301098 0.82300001
-0.094516061 0.087301098 0.82300001
-0.085232161 0.086664639 0.81700003
-0.08379969 0.086664639 0.81700003
-0.082165584 0.086452484 0.81500006
-0.080538489 0.086240329 0.81300002
-0.068284445 0.08517956 0.80300003
-0.066876516 0.08517956 0.80300003
-0.065387063 0.085073486 0.80200005
-0.063980885 0.085073486 0.80200005
-0.062574714 0.085073486 0.80200005
-0.049172234 0.083800569 0.79000002
-0.0294034 0.0827398 0.78000003
0.0073192897 0.080512188 0.75900006
0.0086500701 0.080512188 0.75900006
0.18160237 0.074996203 0.70700002
0.21447562 0.074359745 0.70100003
0.23871633 0.074253663 0.70000005
0.23925811 0.074041516 0.69800001
-0.11841925 0.090469368 0.83900005
-0.11694821 0.090469368 0.83900005
-0.11547716 0.090469368 0.83900005
-0.11373435 0.090253711 0.83700001
-0.11199855 0.090038046 0.83500004
-0.11079927 0.090253711 0.83700001
-0.10907048 0.090038046 0.83500004
-0.10734871 0.089822389 0.83300006
-0.10588818 0.089822389 0.83300006
-0.10247269 0.089391068 0.82900006
-0.10101917 0.089391068 0.82900006
-0.099325456 0.089175411 0.82700002
-0.097638749 0.088959746 0.82500005
-0.096192248 0.088959746 0.82500005
-0.094745748 0.088959746 0.82500005
-0.09307307 0.088744089 0.82300001
-0.091630079 0.088744089 0.82300001
-0.08379969 0.08809711 0.81700003
-0.082165584 0.087881446 0.81500006
-0.080736615 0.087881446 0.81500006
-0.076074503 0.087450132 0.81100005
-0.066876516 0.086587489 0.80300003
-0.065468587 0.086587489 0.80300003
-0.063980885 0.086479656 0.80200005
-0.062574714 0.086479656 0.80200005
-0.049296718 0.085401356 0.79200006
-0.047908079 0.085401356 0.79200006
-0.046401966 0.085185699 0.79000002
-0.045016833 0.085185699 0.79000002
0.12528531 0.07666713 0.71100003
0.12653193 0.07666713 0.71100003
0.233807 0.075480998 0.70000005
-0.11841925 0.091940418 0.83900005
-0.11750577 0.09237875 0.84300005
-0.11575244 0.092159584 0.84100002
-0.11400612 0.091940418 0.83900005
-0.11253507 0.091940418 0.83900005
-0.11106402 0.091940418 0.83900005
-0.10933173 0.091721252 0.83700001
-0.10760645 0.091502085 0.83500004
-0.10588818 0.091282919 0.83300006
-0.10417693 0.091063753 0.83100003
-0.10271991 0.091063753 0.83100003
-0.10101917 0.090844579 0.82900006
-0.099565662 0.090844579 0.82900006
-0.097875446 0.090625413 0.82700002
-0.096425444 0.090625413 0.82700002
-0.094745748 0.090406246 0.82500005
-0.093299247 0.090406246 0.82500005
-0.091852747 0.090406246 0.82500005
-0.09018708 0.09018708 0.82300001
-0.088528432 0.089967914 0.82100004
-0.076262109 0.089091249 0.81300002
-0.062652737 0.087995417 0.80300003
-0.06116854 0.087885834 0.80200005
-0.049421206 0.087009169 0.79400003
-0.048029061 0.087009169 0.79400003
-0.04651944 0.086790003 0.79200006
-0.045016833 0.086570829 0.79000002
-0.043631699 0.086570829 0.79000002
0.1243876 0.078132913 0.71300006
0.12563772 0.078132913 0.71300006
0.12688786 0.078132913 0.71300006
0.23414101 0.076817915 0.70100003
-0.11870154 0.093634136 0.84100002
-0.11722699 0.093634136 0.84100002
-0.11575244 0.093634136 0.84100002
-0.11400612 0.093411461 0.83900005
-0.11253507 0.093411461 0.83900005
-0.11106402 0.093411461 0.83900005
-0.10933173 0.093188792 0.83700001
-0.10786419 0.093188792 0.83700001
-0.10588818 0.092743441 0.83300006
-0.10442766 0.092743441 0.83300006
-0.10271991 0.092520766 0.83100003
-0.10126289 0.092520766 0.83100003
-0.099565662 0.092298098 0.82900006
-0.098112151 0.092298098 0.82900006
-0.096425444 0.092075422 0.82700002
-0.091852747 0.091852747 0.82500005
-0.090406246 0.091852747 0.82500005
-0.088744089 0.091630079 0.82300001
-0.048029061 0.08840131 0.79400003
-0.046636913 0.08840131 0.79400003
-0.0451308 0.088178642 0.79200006
-0.029441096 0.086953938 0.78100002
0.18185924 0.07882636 0.708
0.21292479 0.078381009 0.70400006
0.22001791 0.078269675 0.70300001
0.24151553 0.078047 0.70100003
-0.11750577 0.095334873 0.84300005
-0.11575244 0.095108688 0.84100002
-0.11427788 0.095108688 0.84100002
-0.11253507 0.094882511 0.83900005
-0.11106402 0.094882511 0.83900005
-0.10959297 0.094882511 0.83900005
-0.10614242 0.094430149 0.83500004
-0.10467838 0.094430149 0.83500004
-0.10296713 0.094203971 0.83300006
-0.10150661 0.094203971 0.83300006
-0.099805869 0.093977787 0.83100003
-0.098348849 0.093977787 0.83100003
-0.090406246 0.093299247 0.82500005
-0.088744089 0.09307307 0.82300001
-0.087088943 0.092846893 0.82100004
-0.030889349 0.088549472 0.78300005
-0.02951649 0.088549472 0.78300005
0.18185924 0.080067717 0.708
0.1831006 0.080067717 0.708
0.21352971 0.079841539 0.70600003
0.22001791 0.07950227 0.70300001
0.24220459 0.07950227 0.70300001
0.24343719 0.07950227 0.70300001
-0.11870154 0.09658324 0.84100002
-0.11750577 0.096812926 0.84300005
-0.11575244 0.09658324 0.84100002
-0.11427788 0.09658324 0.84100002
-0.11280333 0.09658324 0.84100002
-0.11132877 0.09658324 0.84100002
-0.10959297 0.096353553 0.83900005
-0.10812193 0.096353553 0.83900005
-0.10639665 0.096123867 0.83700001
-0.10492911 0.096123867 0.83700001
-0.10321435 0.09589418 0.83500004
-0.10175031 0.09589418 0.83500004
-0.10004608 0.095664494 0.83300006
-0.098585546 0.095664494 0.83300006
-0.096891828 0.095434807 0.83100003
-0.095205121 0.095205121 0.82900006
-0.093751609 0.095205121 0.82900006
-0.092075422 0.094975434 0.82700002
-0.090625413 0.094975434 0.82700002
-0.088959746 0.094745748 0.82500005
-0.087088943 0.094286375 0.82100004
-0.049545694 0.091415294 0.79600006
0.24220459 0.080734864 0.70300001
-0.11575244 0.098057799 0.84100002
-0.11427788 0.098057799 0.84100002
-0.11280333 0.098057799 0.84100002
-0.11132877 0.098057799 0.84100002
-0.10985422 0.098057799 0.84100002
-0.10812193 0.097824603 0.83900005
-0.10639665 0.097591408 0.83700001
-0.10492911 0.097591408 0.83700001
-0.10346157 0.097591408 0.83700001
-0.10175031 0.097358219 0.83500004
-0.10028628 0.097358219 0.83500004
-0.098585546 0.097125024 0.83300006
-0.096891828 0.096891828 0.83100003
-0.095434807 0.096891828 0.83100003
-0.093977787 0.096891828 0.83100003
-0.092298098 0.09665864 0.82900006
-0.090844579 0.09665864 0.82900006
-0.088959746 0.096192248 0.82500005
-0.087301098 0.095959052 0.82300001
-0.070386693 0.094559893 0.81100005
-0.064379767 0.094093509 0.80700004
-0.062808782 0.093860313 0.80500007
-0.051069338 0.093044139 0.79800004
-0.049670178 0.093044139 0.79800004
-0.04815004 0.092810944 0.79600006
-0.11575244 0.099532351 0.84100002
-0.11427788 0.099532351 0.84100002
-0.11280333 0.099532351 0.84100002
-0.11132877 0.099532351 0.84100002
-0.10985422 0.099532351 0.84100002
-0.10812193 0.099295646 0.83900005
-0.10665088 0.099295646 0.83900005
-0.10492911 0.099058948 0.83700001
-0.10346157 0.099058948 0.83700001
-0.10199403 0.099058948 0.83700001
-0.10028628 0.098822251 0.83500004
-0.098585546 0.098585546 0.83300006
-0.097125024 0.098585546 0.83300006
-0.092520766 0.098348849 0.83100003
-0.090844579 0.098112151 0.82900006
-0.089175411 0.097875446 0.82700002
-0.087513253 0.097638749 0.82500005
-0.064539321 0.095745146 0.80900002
-0.038091168 0.093496501 0.79000002
0.21848111 0.083555102 0.70600003
0.24008043 0.083318397 0.70400006
-0.11602771 0.10124711 0.84300005
-0.11427788 0.1010069 0.84100002
-0.11280333 0.1010069 0.84100002
-0.11132877 0.1010069 0.84100002
-0.10985422 0.1010069 0.84100002
-0.10837967 0.1010069 0.84100002
-0.10370879 0.1007667 0.83900005
-0.10199403 0.10052649 0.83700001
-0.10052649 0.10052649 0.83700001
-0.098822251 0.10028628 0.83500004
-0.097125024 0.10004608 0.83300006
-0.095664494 0.10004608 0.83300006
-0.094203971 0.10004608 0.83300006
-0.092520766 0.099805869 0.83100003
-0.090844579 0.099565662 0.82900006
-0.089391068 0.099565662 0.82900006
-0.082568847 0.098364629 0.81900007
-0.081132866 0.098364629 0.81900007
-0.06595777 0.097163595 0.80900002
-0.064539321 0.097163595 0.80900002
-0.062964827 0.096923389 0.80700004
-0.061549891 0.096923389 0.80700004
-0.039676178 0.095362045 0.79400003
-0.038187601 0.095121838 0.79200006
0.21848111 0.084792949 0.70600003
0.2411035 0.084913053 0.70700002
0.24200033 0.084792949 0.70600003
-0.11602771 0.10272517 0.84300005
-0.11454965 0.10272517 0.84300005
-0.11280333 0.10248145 0.84100002
-0.10370879 0.10223775 0.83900005
-0.10223775 0.10223775 0.83900005
-0.10052649 0.10199403 0.83700001
-0.099058948 0.10199403 0.83700001
-0.097358219 0.10175031 0.83500004
-0.095664494 0.10150661 0.83300006
-0.094203971 0.10150661 0.83300006
-0.092520766 0.10126289 0.83100003
-0.082770482 0.10004432 0.82100004
-0.081132866 0.099800609 0.81900007
-0.07950227 0.099556893 0.81700003
-0.078069799 0.099556893 0.81700003
-0.070733853 0.099313185 0.81500006
-0.069134809 0.099069469 0.81300002
-0.067542784 0.098825753 0.81100005
-0.066120833 0.098825753 0.81100005
-0.064539321 0.098582044 0.80900002
-0.063120879 0.098582044 0.80900002
-0.11630298 0.10445045 0.84500003
-0.11454965 0.10420323 0.84300005
-0.10370879 0.10370879 0.83900005
-0.10223775 0.10370879 0.83900005
-0.1007667 0.10370879 0.83900005
-0.099058948 0.10346157 0.83700001
-0.097358219 0.10321435 0.83500004
-0.09589418 0.10321435 0.83500004
-0.094203971 0.10296713 0.83300006
-0.092520766 0.10271991 0.83100003
-0.091063753 0.10271991 0.83100003
-0.089391068 0.10247269 0.82900006
-0.081331 0.10148381 0.82100004
-0.079696886 0.10123659 0.81900007
-0.078069799 0.10098937 0.81700003
-0.069304883 0.10074215 0.81500006
-0.067709349 0.10049493 0.81300002
-0.066120833 0.10024771 0.81100005
-0.064698875 0.10024771 0.81100005
0.027137216 0.093325548 0.75500005
0.18564381 0.088133931 0.71300006
-0.11630298 0.10593202 0.84500003
-0.11454965 0.10568129 0.84300005
-0.10395601 0.10543057 0.84100002
-0.10223775 0.10517984 0.83900005
-0.1007667 0.10517984 0.83900005
-0.099295646 0.10517984 0.83900005
-0.097591408 0.10492911 0.83700001
-0.09589418 0.10467838 0.83500004
-0.094203971 0.10442766 0.83300006
-0.092743441 0.10442766 0.83300006
-0.091063753 0.10417693 0.83100003
-0.089606732 0.10417693 0.83100003
-0.087937556 0.1039262 0.82900006
-0.073952973 0.10267257 0.81900007
-0.054205175 0.10066675 0.80300003
-0.05279725 0.10066675 0.80300003
-0.051389322 0.10066675 0.80300003
-0.044073541 0.10003994 0.79800004
0.19564483 0.089384057 0.71300006
-0.11630298 0.10741358 0.84500003
-0.11482142 0.10741358 0.84500003
-0.11333985 0.10741358 0.84500003
-0.11185829 0.10741358 0.84500003
-0.11011547 0.10715935 0.84300005
-0.10863741 0.10715935 0.84300005
-0.10395601 0.10690512 0.84100002
-0.10223775 0.10665088 0.83900005
-0.1007667 0.10665088 0.83900005
-0.099295646 0.10665088 0.83900005
-0.097824603 0.10665088 0.83900005
-0.096123867 0.10639665 0.83700001
-0.094430149 0.10614242 0.83500004
-0.092743441 0.10588818 0.83300006
-0.091282919 0.10588818 0.83300006
-0.089606732 0.10563395 0.83100003
-0.087937556 0.10537972 0.82900006
-0.070907429 0.10385431 0.81700003
-0.054340184 0.10232892 0.80500007
-0.05279725 0.10207468 0.80300003
-0.051389322 0.10207468 0.80300003
-0.045586668 0.10169333 0.80000001
-0.044073541 0.1014391 0.79800004
0.17564279 0.090634182 0.71300006
0.19564483 0.090634182 0.71300006
0.19689494 0.090634182 0.71300006
0.20976003 0.090252832 0.71000004
-0.11806333 0.10915289 0.84700006
-0.11657826 0.10915289 0.84700006
-0.11509318 0.10915289 0.84700006
-0.11360811 0.10915289 0.84700006
-0.11212303 0.10915289 0.84700006
-0.11037672 0.10889515 0.84500003
-0.10889515 0.10889515 0.84500003
-0.10715935 0.10863741 0.84300005
-0.10543057 0.10837967 0.84100002
-0.10395601 0.10837967 0.84100002
-0.10248145 0.10837967 0.84100002
-0.1010069 0.10837967 0.84100002
-0.099295646 0.10812193 0.83900005
-0.097824603 0.10812193 0.83900005
-0.096123867 0.10786419 0.83700001
-0.094430149 0.10760645 0.83500004
-0.092966117 0.10760645 0.83500004
-0.091282919 0.10734871 0.83300006
-0.071081012 0.10554453 0.81900007
-0.06185497 0.10451357 0.81100005
-0.052928749 0.10374035 0.80500007
-0.031244399 0.10206504 0.79200006
-0.02985576 0.10206504 0.79200006
-0.028395234 0.1018073 0.79000002
0.24606192 0.091111086 0.70700002
-0.11983069 0.11089921 0.84900004
-0.11834211 0.11089921 0.84900004
-0.11685353 0.11089921 0.84900004
-0.11536495 0.11089921 0.84900004
-0.11360811 0.11063796 0.84700006
-0.11212303 0.11063796 0.84700006
-0.11063796 0.11063796 0.84700006
-0.10915289 0.11063796 0.84700006
-0.10741358 0.11037672 0.84500003
-0.10593202 0.11037672 0.84500003
-0.10420323 0.11011547 0.84300005
-0.10248145 0.10985422 0.84100002
-0.1010069 0.10985422 0.84100002
-0.099295646 0.10959297 0.83900005
-0.097824603 0.10959297 0.83900005
-0.096123867 0.10933173 0.83700001
-0.094430149 0.10907048 0.83500004
-0.092966117 0.10907048 0.83500004
-0.086484045 0.10828675 0.82900006
-0.071081012 0.10698051 0.81900007
-0.069645032 0.10698051 0.81900007
-0.068209052 0.10698051 0.81900007
-0.063432969 0.10619677 0.81300002
-0.06185497 0.10593552 0.81100005
-0.060433015 0.10593552 0.81100005
-0.047106806 0.10475991 0.80200005
-0.029931152 0.10371493 0.79400003
0.21753518 0.092873186 0.71100003
0.24640995 0.092481323 0.708
0.24730153 0.092350699 0.70700002
-0.11834211 0.11238779 0.84900004
-0.11685353 0.11238779 0.84900004
-0.11536495 0.11238779 0.84900004
-0.11387637 0.11238779 0.84900004
-0.11238779 0.11238779 0.84900004
-0.11089921 0.11238779 0.84900004
-0.10915289 0.11212303 0.84700006
-0.10766782 0.11212303 0.84700006
-0.10593202 0.11185829 0.84500003
-0.10445045 0.11185829 0.84500003
-0.10272517 0.11159353 0.84300005
-0.10124711 0.11159353 0.84300005
-0.099532351 0.11132877 0.84100002
-0.097824603 0.11106402 0.83900005
-0.096123867 0.11079927 0.83700001
-0.094656326 0.11079927 0.83700001
-0.092966117 0.11053452 0.83500004
-0.088361859 0.11026976 0.83300006
-0.086692691 0.11000501 0.83100003
-0.08523567 0.11000501 0.83100003
-0.083577015 0.10974026 0.82900006
-0.081925377 0.1094755 0.82700002
-0.069645032 0.10841649 0.81900007
-0.068209052 0.10841649 0.81900007
-0.04869445 0.10656322 0.80500007
-0.047165543 0.10629846 0.80300003
-0.045700632 0.10616609 0.80200005
-0.11834211 0.11387637 0.84900004
-0.11685353 0.11387637 0.84900004
-0.11536495 0.11387637 0.84900004
-0.11387637 0.11387637 0.84900004
-0.11238779 0.11387637 0.84900004
-0.11089921 0.11387637 0.84900004
-0.10915289 0.11360811 0.84700006
-0.10766782 0.11360811 0.84700006
-0.10618274 0.11360811 0.84700006
-0.10445045 0.11333985 0.84500003
-0.10272517 0.11307159 0.84300005
-0.10124711 0.11307159 0.84300005
-0.099532351 0.11280333 0.84100002
-0.098057799 0.11280333 0.84100002
-0.096353553 0.11253507 0.83900005
-0.094656326 0.11226681 0.83700001
-0.093188792 0.11226681 0.83700001
-0.091502085 0.11199855 0.83500004
-0.086901337 0.11173029 0.83300006
-0.08523567 0.11146203 0.83100003
-0.083577015 0.11119377 0.82900006
-0.082123503 0.11119377 0.82900006
-0.04869445 0.10797465 0.80500007
-0.047165543 0.10770639 0.80300003
-0.045700632 0.10757226 0.80200005
0.23465736 0.0952323 0.71000004
0.23590223 0.0952323 0.71000004
-0.1171288 0.11563671 0.85100001
-0.11563671 0.11563671 0.85100001
-0.11387637 0.11536495 0.84900004
-0.11238779 0.11536495 0.84900004
-0.11089921 0.11536495 0.84900004
-0.10445045 0.11482142 0.84500003
-0.10296888 0.11482142 0.84500003
-0.10124711 0.11454965 0.84300005
-0.098057799 0.11427788 0.84100002
-0.096353553 0.11400612 0.83900005
-0.094882511 0.11400612 0.83900005
-0.093188792 0.11373435 0.83700001
-0.091721252 0.11373435 0.83700001
-0.085440807 0.11319081 0.83300006
-0.08377865 0.11291905 0.83100003
-0.082321629 0.11291905 0.83100003
-0.047283016 0.10938608 0.80500007
0.12520991 0.098515414 0.72500002
0.2446163 0.096477166 0.71000004
0.24586116 0.096477166 0.71000004
-0.11563671 0.1171288 0.85100001
-0.11387637 0.11685353 0.84900004
-0.11238779 0.11685353 0.84900004
-0.11089921 0.11685353 0.84900004
-0.10469767 0.11657826 0.84700006
-0.10296888 0.11630298 0.84500003
-0.10148732 0.11630298 0.84500003
-0.09658324 0.11575244 0.84100002
-0.094882511 0.11547716 0.83900005
-0.093411461 0.11547716 0.83900005
-0.091721252 0.11520189 0.83700001
-0.090253711 0.11520189 0.83700001
-0.071428172 0.11327498 0.82300001
0.12520991 0.09978658 0.72500002
0.12648109 0.09978658 0.72500002
0.21094178 0.098272577 0.71400005
0.24496083 0.097859666 0.71100003
0.24620745 0.097859666 0.71100003
0.24745406 0.097859666 0.71100003
0.2483509 0.097722031 0.71000004
-0.11563671 0.11862089 0.85100001
-0.11387637 0.11834211 0.84900004
-0.11238779 0.11834211 0.84900004
-0.11089921 0.11834211 0.84900004
-0.10469767 0.11806333 0.84700006
-0.10321259 0.11806333 0.84700006
-0.10148732 0.11778455 0.84500003
-0.098290987 0.11750577 0.84300005
-0.09658324 0.11722699 0.84100002
-0.094882511 0.11694821 0.83900005
-0.093411461 0.11694821 0.83900005
-0.091940418 0.11694821 0.83900005
-0.090253711 0.11666943 0.83700001
-0.08878617 0.11666943 0.83700001
-0.071428172 0.11471797 0.82300001
-0.069815099 0.11443919 0.82100004
-0.068375617 0.11443919 0.82100004
-0.056305669 0.11332407 0.81300002
-0.03707774 0.11123322 0.79800004
-0.03567858 0.11123322 0.79800004
-0.034193505 0.11095444 0.79600006
0.24496083 0.099106289 0.71100003
0.24620745 0.099106289 0.71100003
-0.11563671 0.12011298 0.85100001
-0.11414463 0.12011298 0.85100001
-0.11265254 0.12011298 0.85100001
-0.10494489 0.11983069 0.84900004
-0.10321259 0.1195484 0.84700006
-0.10172752 0.1195484 0.84700006
-0.10024245 0.1195484 0.84700006
-0.098290987 0.11898383 0.84300005
-0.095108688 0.11870154 0.84100002
-0.093411461 0.11841925 0.83900005
-0.091940418 0.11841925 0.83900005
-0.090253711 0.11813697 0.83700001
-0.071601748 0.11644325 0.82500005
-0.069985174 0.11616096 0.82300001
-0.037170667 0.11291467 0.80000001
-0.03567858 0.11263238 0.79800004
0.18468474 0.10148206 0.71900004
0.18594538 0.10148206 0.71900004
0.23814912 0.10063519 0.71300006
0.23872773 0.10035291 0.71100003
-0.11604436 0.12203375 0.85400003
-0.11414463 0.12160506 0.85100001
-0.11304967 0.12203375 0.85400003
-0.11116046 0.12160506 0.85100001
-0.095108688 0.1201761 0.84100002
-0.093634136 0.1201761 0.84100002
-0.091940418 0.1198903 0.83900005
-0.071601748 0.11788975 0.82500005
-0.069985174 0.11760396 0.82300001
0.25100192 0.10202822 0.71400005
0.25225383 0.10202822 0.71400005
-0.11604436 0.1235311 0.85400003
-0.11414463 0.12309715 0.85100001
-0.11304967 0.1235311 0.85400003
-0.11155233 0.1235311 0.85400003
-0.11005498 0.1235311 0.85400003
-0.10668419 0.12309715 0.85100001
-0.07340242 0.11991485 0.82900006
-0.071775332 0.11962555 0.82700002
-0.070155248 0.11933625 0.82500005
-0.068542182 0.11904695 0.82300001
-0.11631613 0.12532125 0.85600007
-0.11481528 0.12532125 0.85600007
-0.11331443 0.12532125 0.85600007
-0.11181358 0.12532125 0.85600007
-0.11031272 0.12532125 0.85600007
-0.10881186 0.12532125 0.85600007
-0.10706028 0.12502845 0.85400003
-0.10556294 0.12502845 0.85400003
-0.093856812 0.12341801 0.84300005
-0.07340242 0.12136836 0.82900006
-0.071775332 0.12107556 0.82700002
-0.070155248 0.12078275 0.82500005
-0.065656193 0.12048994 0.82300001
-0.063901111 0.11990433 0.81900007
-0.062465131 0.11990433 0.81900007
-0.047635436 0.1187331 0.81100005
-0.1165879 0.12711842 0.85800004
-0.11508354 0.12711842 0.85800004
-0.11357918 0.12711842 0.85800004
-0.11207482 0.12711842 0.85800004
-0.11057046 0.12711842 0.85800004
-0.10881186 0.1268221 0.85600007
-0.10731101 0.1268221 0.85600007
-0.10556294 0.12652579 0.85400003
-0.09407948 0.12519239 0.84500003
-0.07340242 0.12282187 0.82900006
-0.071948908 0.12282187 0.82900006
-0.070325322 0.12252557 0.82700002
-0.065656193 0.12193294 0.82300001
-0.064057156 0.12163662 0.82100004
-0.062465131 0.12134031 0.81900007
-0.061029151 0.12134031 0.81900007
-0.049057391 0.12015506 0.81100005
-0.047635436 0.12015506 0.81100005
-0.046099517 0.11985874 0.80900002
-0.035902131 0.11896981 0.80300003
-0.034494203 0.11896981 0.80300003
-0.033086278 0.11896981 0.80300003
0.22157575 0.10608017 0.71600002
0.22283113 0.10608017 0.71600002
-0.1165879 0.12862279 0.85800004
-0.11508354 0.12862279 0.85800004
-0.11207482 0.12862279 0.85800004
-0.11057046 0.12862279 0.85800004
-0.1090661 0.12862279 0.85800004
-0.10731101 0.12832296 0.85600007
-0.10581016 0.12832296 0.85600007
-0.097501986 0.12727359 0.84900004
-0.095787227 0.12697376 0.84700006
-0.094302155 0.12697376 0.84700006
-0.092597917 0.12667395 0.84500003
-0.089210473 0.12607431 0.84100002
-0.087527275 0.12577449 0.83900005
-0.071948908 0.12427539 0.82900006
-0.11057046 0.13012713 0.85800004
-0.10581016 0.12982382 0.85600007
-0.10406559 0.12952049 0.85400003
-0.10256825 0.12952049 0.85400003
-0.10071585 0.1290655 0.85100001
-0.099223763 0.1290655 0.85100001
-0.097501986 0.12876217 0.84900004
-0.096013412 0.12876217 0.84900004
-0.087735921 0.12754886 0.84100002
-0.073579513 0.12603223 0.83100003
-0.071948908 0.12572891 0.82900006
0.23194233 0.10874261 0.71700001
0.23287423 0.10859095 0.71600002
-0.099223763 0.13055758 0.85100001
-0.09773168 0.13055758 0.85100001
-0.096013412 0.13025075 0.84900004
-0.073579513 0.12748925 0.83100003
-0.072122492 0.12748925 0.83100003
-0.070495397 0.12718241 0.82900006
-0.067425311 0.12687558 0.82700002
-0.065975301 0.12687558 0.82700002
-0.064369246 0.12656875 0.82500005
0.23194233 0.10999975 0.71700001
0.23319946 0.10999975 0.71700001
-0.1165879 0.13313586 0.85800004
-0.099223763 0.13204966 0.85100001
-0.09773168 0.13204966 0.85100001
-0.096013412 0.13173933 0.84900004
-0.073579513 0.12894627 0.83100003
-0.072122492 0.12894627 0.83100003
-0.070495397 0.12863593 0.82900006
-0.067425311 0.1283256 0.82700002
-0.065975301 0.1283256 0.82700002
-0.064369246 0.12801525 0.82500005
-0.049178369 0.12615322 0.81300002
-0.047752909 0.12615322 0.81300002
-0.09773168 0.13354176 0.85100001
-0.096013412 0.13322791 0.84900004
-0.091332011 0.13291407 0.84700006
-0.073756598 0.13071713 0.83300006
-0.072122492 0.1304033 0.83100003
-0.070495397 0.13008945 0.82900006
-0.067588367 0.13008945 0.82900006
-0.065975301 0.1297756 0.82700002
0.24919425 0.1123571 0.71600002
0.25044963 0.1123571 0.71600002
-0.1108282 0.13646193 0.86000001
-0.091332011 0.13439913 0.84700006
0.14911224 0.11583397 0.73000002
0.14998013 0.11551661 0.72800004
0.21583709 0.11456455 0.72200006
0.21650159 0.1142472 0.72000003
0.24919425 0.1136125 0.71600002
0.25044963 0.1136125 0.71600002
-0.11233607 0.13796979 0.86000001
-0.1108282 0.13796979 0.86000001
-0.10932034 0.13796979 0.86000001
-0.10605738 0.13764894 0.85800004
-0.10455302 0.13764894 0.85800004
-0.10280845 0.13732807 0.85600007
-0.066134855 0.13299647 0.82900006
-0.11233607 0.13947767 0.86000001
-0.1108282 0.13947767 0.86000001
-0.10932034 0.13947767 0.86000001
-0.10781246 0.13947767 0.86000001
-0.10605738 0.1391533 0.85800004
-0.10455302 0.1391533 0.85800004
-0.10280845 0.13882893 0.85600007
-0.06775143 0.13477434 0.83100003
-0.066294409 0.13477434 0.83100003
-0.064681344 0.13444999 0.82900006
-0.03617039 0.13120632 0.80900002
0.20064621 0.11709636 0.72200006
0.20191211 0.11709636 0.72200006
-0.11108594 0.1413134 0.86200005
-0.10957456 0.1413134 0.86200005
-0.10781246 0.14098553 0.86000001
-0.1063046 0.14098553 0.86000001
-0.10455302 0.14065766 0.85800004
-0.03617039 0.13262476 0.80900002
0.2480616 0.1180344 0.72000003
0.24897772 0.11787046 0.71900004
-0.11108594 0.14282478 0.86200005
-0.10957456 0.14282478 0.86200005
-0.10806319 0.14282478 0.86200005
-0.1063046 0.1424934 0.86000001
0.24875066 0.11962818 0.72200006
0.25001657 0.11962818 0.72200006
-0.11325043 0.14517337 0.86700004
-0.11134368 0.14467104 0.86400002
-0.1098288 0.14467104 0.86400002
-0.10806319 0.14433615 0.86200005
-0.1063046 0.14400126 0.86000001
-0.064837389 0.1391454 0.83100003
-0.063380368 0.1391454 0.83100003
-0.061774317 0.13881052 0.82900006
0.24909519 0.12106153 0.72300005
0.25001657 0.12089409 0.72200006
0.25381428 0.12089409 0.72200006
0.25437361 0.1205592 0.72000003
-0.1098288 0.14618592 0.86400002
-0.10806319 0.14584753 0.86200005
-0.1063046 0.14550914 0.86000001
-0.064837389 0.14060242 0.83100003
-0.063380368 0.14060242 0.83100003
-0.061774317 0.14026403 0.82900006
0.1670313 0.12351356 0.73000002
0.16831124 0.12351356 0.73000002
0.25381428 0.12216 0.72200006
0.25508019 0.12216 0.72200006
-0.086876787 0.14479464 0.84700006
-0.08519008 0.14445275 0.84500003
-0.083510391 0.14411084 0.84300005
-0.063380368 0.14205945 0.83100003
-0.1015443 0.14817946 0.85800004
-0.087081932 0.14662513 0.84900004
-0.085391715 0.14627972 0.84700006
-0.083708517 0.14593431 0.84500003
-0.078700997 0.1448981 0.83900005
0.1818908 0.12572803 0.72800004
0.18316722 0.12572803 0.72800004
0.22120667 0.12486451 0.72300005
0.22247432 0.12486451 0.72300005
0.23453026 0.12520991 0.72500002
0.23580141 0.12520991 0.72500002
-0.11325043 0.15125392 0.86700004
-0.1015443 0.14968382 0.85800004
-0.064993434 0.1453224 0.83300006
-0.063380368 0.14497349 0.83100003
-0.061774317 0.14462458 0.82900006
-0.11325043 0.15277407 0.86700004
-0.064993434 0.14678293 0.83300006
-0.063532911 0.14678293 0.83300006
-0.062072381 0.14678293 0.83300006
-0.057552289 0.14643051 0.83100003
0.21507789 0.12828088 0.72800004
0.21605712 0.12810467 0.72700006
-0.11477057 0.15429421 0.86700004
-0.11325043 0.15429421 0.86700004
-0.087081932 0.15109088 0.84900004
-0.08559335 0.15109088 0.84900004
-0.083906643 0.15073495 0.84700006
-0.021877216 0.14326048 0.80500007
-0.087081932 0.15257944 0.84900004
-0.08559335 0.15257944 0.84900004
-0.084104769 0.15257944 0.84900004
-0.07446494 0.15114172 0.84100002
-0.072990388 0.15114172 0.84100002
-0.071345761 0.15078229 0.83900005
-0.021877216 0.14467192 0.80500007
0.16000657 0.13173231 0.73300004
0.16151181 0.13191204 0.73400003
0.17309433 0.13191204 0.73400003
0.17438127 0.13191204 0.73400003
0.24282527 0.13065402 0.72700006
0.24342841 0.13029458 0.72500002
-0.10894074 0.15769742 0.86900002
-0.087287068 0.15443097 0.85100001
-0.08559335 0.15406802 0.84900004
-0.084104769 0.15406802 0.84900004
-0.11325043 0.15885463 0.86700004
-0.11173029 0.15885463 0.86700004
-0.11021015 0.15885463 0.86700004
0.23805358 0.13338658 0.72800004
0.23900124 0.13320336 0.72700006
-0.08559335 0.15704519 0.84900004
-0.1020177 0.16096126 0.86200005
-0.087287068 0.15890723 0.85100001
-0.08559335 0.15853377 0.84900004
-0.084104769 0.15853377 0.84900004
-0.11325043 0.16341504 0.86700004
-0.11173029 0.16341504 0.86700004
-0.11021015 0.16341504 0.86700004
-0.1022544 0.16284961 0.86400002
-0.087594777 0.16096477 0.85400003
-0.085794985 0.16039932 0.85100001
-0.084104769 0.16002235 0.84900004
-0.077966347 0.15964538 0.84700006
-0.076481275 0.15964538 0.84700006
-0.054638248 0.15662965 0.83100003
-0.030798176 0.15399088 0.81700003
-0.11325043 0.16493519 0.86700004
-0.10869001 0.16493519 0.86700004
-0.1022544 0.16436447 0.86400002
-0.076481275 0.16113046 0.84700006
-0.065617621 0.15998903 0.84100002
-0.063990526 0.15960856 0.83900005
-0.054769751 0.15846714 0.83300006
0.1170648 0.14191656 0.74600005
0.11805544 0.14153607 0.74400002
0.11935992 0.14153607 0.74400002
0.1509506 0.1405849 0.73900002
0.15224631 0.1405849 0.73900002
0.19599198 0.13944347 0.73300004
0.1967389 0.139063 0.73100001
-0.10869001 0.16645533 0.86700004
-0.10679904 0.16587935 0.86400002
-0.1022544 0.16587935 0.86400002
-0.10050633 0.16549538 0.86200005
0.24638717 0.14015269 0.73000002
0.2476671 0.14015269 0.73000002
-0.11325043 0.16797547 0.86700004
-0.11173029 0.16797547 0.86700004
-0.11021015 0.16797547 0.86700004
-0.10869001 0.16797547 0.86700004
-0.10679904 0.16739424 0.86400002
-0.10376928 0.16739424 0.86400002
-0.1022544 0.16739424 0.86400002
-0.10050633 0.16700675 0.86200005
0.20113276 0.14201386 0.73300004
0.20241795 0.14201386 0.73300004
0.24826498 0.14104515 0.72800004
0.25022697 0.14143263 0.73000002
-0.10869001 0.16949561 0.86700004
-0.1022544 0.16890912 0.86400002
-0.092518136 0.16773614 0.85800004
-0.091013782 0.16773614 0.85800004
-0.087799922 0.16734515 0.85600007
-0.086097434 0.16695414 0.85400003
-0.084302895 0.16636766 0.85100001
-0.1022544 0.170424 0.86400002
-0.094241664 0.169635 0.86000001
-0.092518136 0.1692405 0.85800004
-0.091013782 0.1692405 0.85800004
-0.087799922 0.168846 0.85600007
-0.086299069 0.168846 0.85600007
-0.084600084 0.1684515 0.85400003
0.22169586 0.14458425 0.73300004
0.22237264 0.14418975 0.73100001
0.23454778 0.14458425 0.73300004
0.23583297 0.14458425 0.73300004
0.25662664 0.1439925 0.73000002
0.25790656 0.1439925 0.73000002
-0.10260945 0.1725359 0.86700004
-0.094241664 0.17114286 0.86000001
-0.092518136 0.17074487 0.85800004
-0.091013782 0.17074487 0.85800004
-0.075173289 0.16895384 0.84900004
-0.073511131 0.16855583 0.84700006
-0.072026059 0.16855583 0.84700006
0.22169586 0.14586945 0.73300004
0.22237264 0.14547144 0.73100001
0.23454778 0.14586945 0.73300004
0.23583297 0.14586945 0.73300004
-0.10412959 0.17405602 0.86700004
-0.10260945 0.17405602 0.86700004
-0.10073952 0.17345376 0.86400002
-0.075173289 0.1704424 0.84900004
-0.073684707 0.1704424 0.84900004
-0.072026059 0.17004089 0.84700006
-0.048810169 0.1668288 0.83100003
-0.030873571 0.16441971 0.81900007
-0.0035198166 0.1612076 0.80300003
-0.0021092601 0.16100685 0.80200005
0.17686486 0.14835918 0.73900002
0.17791949 0.14815842 0.73800004
0.24997011 0.14715463 0.73300004
0.2512553 0.14715463 0.73300004
-0.092518136 0.17375357 0.85800004
-0.073684707 0.17193098 0.84900004
0.23486777 0.14864235 0.73400003
0.23583297 0.14843982 0.73300004
0.23486777 0.14992929 0.73400003
0.23583297 0.14972502 0.73300004
-0.10944219 0.17985255 0.87300003
-0.073858291 0.17532018 0.85100001
-0.072196126 0.17490815 0.84900004
0.23486777 0.15121624 0.73400003
0.23583297 0.15101022 0.73300004
-0.080108047 0.17743558 0.85400003
-0.0787948 0.17785113 0.85600007
-0.075350374 0.17681228 0.85100001
-0.073858291 0.17681228 0.85100001
-0.072196126 0.17639673 0.84900004
-0.039971616 0.17224133 0.82900006
-0.034075156 0.17182578 0.82700002
-0.029509477 0.17057917 0.82100004
-0.02800161 0.17016363 0.81900007
-0.02656563 0.17016363 0.81900007
0.17214665 0.15395758 0.74100006
0.17344587 0.15395758 0.74100006
0.22062019 0.15333426 0.73800004
-0.11582958 0.18333292 0.87500006
-0.11429542 0.18333292 0.87500006
-0.10791153 0.18291387 0.87300003
-0.10638087 0.18291387 0.87300003
-0.10461 0.18249482 0.87100005
-0.09122593 0.18019007 0.86000001
-0.089718066 0.18019007 0.86000001
-0.088005058 0.17977102 0.85800004
-0.073858291 0.17830436 0.85100001
-0.039971616 0.17369485 0.82900006
-0.038518105 0.17369485 0.82900006
0.23550773 0.15420917 0.73600006
0.23679818 0.15420917 0.73600006
0.24258944 0.15379013 0.73400003
0.2438764 0.15379013 0.73400003
0.25511089 0.15358061 0.73300004
0.25639606 0.15358061 0.73300004
-0.11736375 0.18486708 0.87500006
-0.11582958 0.18486708 0.87500006
-0.11429542 0.18486708 0.87500006
-0.11276125 0.18486708 0.87500006
-0.10815875 0.18486708 0.87500006
-0.10638087 0.18444453 0.87300003
-0.10461 0.18402198 0.87100005
-0.089718066 0.18169793 0.86000001
-0.062817551 0.17810623 0.84300005
-0.06133949 0.17810623 0.84300005
-0.052097671 0.17683856 0.83700001
-0.039971616 0.17514835 0.82900006
0.12064336 0.15888005 0.75200003
0.12196187 0.15888005 0.75200003
0.12328038 0.15888005 0.75200003
0.146754 0.15718985 0.74400002
0.14805847 0.15718985 0.74400002
0.23550773 0.15549962 0.73600006
0.23679818 0.15549962 0.73600006
0.24258944 0.15507707 0.73400003
0.2438764 0.15507707 0.73400003
0.25511089 0.1548658 0.73300004
0.25639606 0.1548658 0.73300004
-0.11582958 0.18640125 0.87500006
-0.10969292 0.18640125 0.87500006
-0.10815875 0.18640125 0.87500006
-0.067570835 0.1804364 0.84700006
-0.065929718 0.18001035 0.84500003
-0.052222155 0.17873217 0.83900005
0.24258944 0.15636402 0.73400003
0.2438764 0.15636402 0.73400003
0.25511089 0.15615098 0.73300004
0.25639606 0.15615098 0.73300004
-0.11736375 0.18793541 0.87500006
-0.11582958 0.18793541 0.87500006
-0.11429542 0.18793541 0.87500006
-0.11276125 0.18793541 0.87500006
-0.11122708 0.18793541 0.87500006
-0.10969292 0.18793541 0.87500006
-0.069218971 0.18235105 0.84900004
-0.067570835 0.18192148 0.84700006
-0.066085763 0.18192148 0.84700006
0.18588839 0.1597988 0.74400002
0.18719287 0.1597988 0.74400002
0.19553261 0.15915444 0.74100006
0.19683182 0.15915444 0.74100006
0.2102685 0.1585101 0.73800004
0.24773723 0.15765096 0.73400003
0.24902418 0.15765096 0.73400003
