# .PCD v0.7 - Point Cloud Data file format
VERSION 0.7
FIELDS x y z
SIZE 4 4 4
TYPE F F F
COUNT 1 1 1
WIDTH 1373
HEIGHT 1
VIEWPOINT 0 0 0 1 0 0 0
POINTS 1373
DATA ascii
0.01555119 -0.11116221 0.65700001
0.018949149 -0.11082382 0.65500003
0.047077876 -0.10947024 0.64700001
0.048212282 -0.10947024 0.64700001
0.049270421 -0.10930105 0.64600003
0.05900405 -0.10845506 0.64100003
0.060127936 -0.10845506 0.64100003
0.061251823 -0.10845506 0.64100003
0.073270045 -0.10794748 0.63800001
0.074621864 -0.10828587 0.64000005
0.075507298 -0.10794748 0.63800001
0.076625928 -0.10794748 0.63800001
0.077744551 -0.10794748 0.63800001
0.083207063 -0.10777827 0.63700002
0.084323935 -0.10777827 0.63700002
0.085440807 -0.10777827 0.63700002
0.091708101 -0.10727069 0.634
0.092819713 -0.10727069 0.634
0.095851228 -0.10693229 0.63200003
0.09695933 -0.10693229 0.63200003
0.09806744 -0.10693229 0.63200003
0.099018626 -0.10676309 0.63100004
0.10012498 -0.10676309 0.63100004
0.10123133 -0.10676309 0.63100004
0.13095208 -0.10574792 0.625
0.13204792 -0.10574792 0.625
0.13314375 -0.10574792 0.625
0.1340248 -0.10557872 0.62400001
0.13511887 -0.10557872 0.62400001
0.13643125 -0.10574792 0.625
-0.054168355 -0.11369402 0.67900002
-0.052977841 -0.11369402 0.67900002
-0.051787328 -0.11369402 0.67900002
-0.050820366 -0.11419635 0.68200004
-0.048428819 -0.11419635 0.68200004
-0.047233045 -0.11419635 0.68200004
-0.045767259 -0.11352658 0.67800003
-0.039882198 -0.11369402 0.67900002
-0.038634699 -0.11352658 0.67800003
-0.037335481 -0.11319169 0.67600006
-0.031409211 -0.11319169 0.67600006
-0.030179249 -0.11302425 0.67500001
-0.02899575 -0.11302425 0.67500001
-0.0265893 -0.11285681 0.67400002
-0.02533216 -0.11252192 0.67200005
-0.024117976 -0.11235447 0.671
-0.0229073 -0.11218704 0.67000002
-0.021732567 -0.11218704 0.67000002
-0.020496467 -0.11185215 0.66800004
-0.014640333 -0.11185215 0.66800004
-0.013509433 -0.11218704 0.67000002
-0.01229788 -0.11185215 0.66800004
-0.011126653 -0.11185215 0.66800004
-0.0099554267 -0.11185215 0.66800004
-0.0087710498 -0.1116847 0.66700006
-0.0075901798 -0.11151726 0.66600001
-0.0040747467 -0.11118237 0.66400003
0.028050704 -0.1093405 0.65300006
0.047077876 -0.10833584 0.64700001
0.048212282 -0.10833584 0.64700001
0.049270421 -0.10816839 0.64600003
0.058060758 -0.10766606 0.64300001
0.059096098 -0.10749862 0.64200002
0.060127936 -0.10733118 0.64100003
0.064623483 -0.10733118 0.64100003
0.065644801 -0.10716373 0.64000005
0.066558287 -0.10682885 0.63800001
0.074621864 -0.10716373 0.64000005
0.075744003 -0.10716373 0.64000005
0.076625928 -0.10682885 0.63800001
0.077744551 -0.10682885 0.63800001
0.10028365 -0.10582419 0.63200003
0.10139176 -0.10582419 0.63200003
0.10249986 -0.10582419 0.63200003
0.10344403 -0.10565674 0.63100004
0.10455039 -0.10565674 0.63100004
0.11286207 -0.10515441 0.62800002
0.11396316 -0.10515441 0.62800002
0.13095208 -0.10465208 0.625
0.13204792 -0.10465208 0.625
0.13314375 -0.10465208 0.625
0.1340248 -0.10448464 0.62400001
0.13511887 -0.10448464 0.62400001
0.13643125 -0.10465208 0.625
0.13730703 -0.10448464 0.62400001
0.13840112 -0.10448464 0.62400001
-0.052016139 -0.11300058 0.68200004
-0.048428819 -0.11300058 0.68200004
-0.047233045 -0.11300058 0.68200004
-0.046037272 -0.11300058 0.68200004
-0.039882198 -0.11250351 0.67900002
-0.038691685 -0.11250351 0.67900002
-0.035120144 -0.11250351 0.67900002
-0.03387966 -0.11233782 0.67800003
-0.032690901 -0.11233782 0.67800003
-0.031409211 -0.11200644 0.67600006
-0.03022396 -0.11200644 0.67600006
-0.029038707 -0.11200644 0.67600006
-0.026628749 -0.11184075 0.67500001
-0.02533216 -0.11134368 0.67200005
-0.02415392 -0.11134368 0.67200005
-0.022941491 -0.11117799 0.671
-0.021732567 -0.1110123 0.67000002
-0.020557834 -0.1110123 0.67000002
-0.01932524 -0.11068092 0.66800004
-0.018208366 -0.1110123 0.67000002
-0.016982786 -0.11068092 0.66800004
-0.0158589 -0.1110123 0.67000002
-0.014684167 -0.1110123 0.67000002
-0.013509433 -0.1110123 0.67000002
-0.01229788 -0.11068092 0.66800004
-0.011126653 -0.11068092 0.66800004
-0.0099554267 -0.11068092 0.66800004
-0.0087710498 -0.11051523 0.66700006
-0.0075901798 -0.11034954 0.66600001
-0.0017410599 -0.10968678 0.66200006
0.00173843 -0.10952109 0.66100001
0.0028886166 -0.10918971 0.65900004
0.0040440634 -0.10918971 0.65900004
0.026946981 -0.10836126 0.65400004
0.028050704 -0.10819557 0.65300006
0.02915092 -0.10802988 0.65200001
0.058060758 -0.10653867 0.64300001
0.05918815 -0.10653867 0.64300001
0.060221739 -0.10637298 0.64200002
0.064724296 -0.10637298 0.64200002
0.065747373 -0.10620729 0.64100003
0.066871256 -0.10620729 0.64100003
0.074621864 -0.1060416 0.64000005
0.076866135 -0.1060416 0.64000005
0.10028365 -0.10471608 0.63200003
0.10139176 -0.10471608 0.63200003
0.10249986 -0.10471608 0.63200003
0.10344403 -0.10455039 0.63100004
0.10455039 -0.10455039 0.63100004
0.11304178 -0.10421901 0.62900001
0.11616535 -0.10405332 0.62800002
0.11726644 -0.10405332 0.62800002
0.11836753 -0.10405332 0.62800002
0.12167081 -0.10405332 0.62800002
0.1227719 -0.10405332 0.62800002
0.13511887 -0.10339056 0.62400001
0.13643125 -0.10355625 0.625
0.13752708 -0.10355625 0.625
0.13949519 -0.10339056 0.62400001
0.14058928 -0.10339056 0.62400001
0.14168335 -0.10339056 0.62400001
-0.064161479 -0.11213268 0.68400002
-0.063146301 -0.11246055 0.68600005
-0.056799233 -0.11180481 0.68200004
-0.055603459 -0.11180481 0.68200004
-0.047233045 -0.11180481 0.68200004
-0.046037272 -0.11180481 0.68200004
-0.041133199 -0.11147694 0.68000001
-0.039940935 -0.11147694 0.68000001
-0.038691685 -0.11131299 0.67900002
-0.037501171 -0.11131299 0.67900002
-0.036310658 -0.11131299 0.67900002
-0.035120144 -0.11131299 0.67900002
-0.03022396 -0.11082119 0.67600006
-0.029038707 -0.11082119 0.67600006
-0.02781225 -0.11065725 0.67500001
-0.026628749 -0.11065725 0.67500001
-0.025407553 -0.11049331 0.67400002
-0.02415392 -0.11016544 0.67200005
-0.022941491 -0.1100015 0.671
-0.021765003 -0.1100015 0.671
-0.020557834 -0.10983757 0.67000002
-0.019383101 -0.10983757 0.67000002
-0.018208366 -0.10983757 0.67000002
-0.017033633 -0.10983757 0.67000002
-0.0158589 -0.10983757 0.67000002
-0.0099554267 -0.10950969 0.66800004
-0.0087710498 -0.10934576 0.66700006
-0.0075901798 -0.10918182 0.66600001
-0.00290615 -0.10869001 0.66300005
-0.0017410599 -0.10852607 0.66200006
0.016703131 -0.10770639 0.65700001
0.017855071 -0.10770639 0.65700001
0.01900701 -0.10770639 0.65700001
0.02015895 -0.10770639 0.65700001
0.02131089 -0.10770639 0.65700001
0.038120095 -0.10639489 0.64900005
0.039258011 -0.10639489 0.64900005
0.040395923 -0.10639489 0.64900005
0.058060758 -0.10541128 0.64300001
0.05918815 -0.10541128 0.64300001
0.060315542 -0.10541128 0.64300001
0.063598663 -0.10524734 0.64200002
0.064724296 -0.10524734 0.64200002
0.065849937 -0.10524734 0.64200002
0.066975579 -0.10524734 0.64200002
0.074621864 -0.10491946 0.64000005
0.075744003 -0.10491946 0.64000005
0.089767158 -0.10426372 0.63600004
0.090882279 -0.10426372 0.63600004
0.09806744 -0.10360797 0.63200003
0.099175543 -0.10360797 0.63200003
0.10028365 -0.10360797 0.63200003
0.10139176 -0.10360797 0.63200003
0.10249986 -0.10360797 0.63200003
0.10360797 -0.10360797 0.63200003
0.10471608 -0.10360797 0.63200003
0.10582419 -0.10360797 0.63200003
0.10786945 -0.10344403 0.63100004
0.10897581 -0.10344403 0.63100004
0.11008216 -0.10344403 0.63100004
0.11304178 -0.10311616 0.62900001
0.12056972 -0.10295223 0.62800002
0.12167081 -0.10295223 0.62800002
0.1227719 -0.10295223 0.62800002
0.123873 -0.10295223 0.62800002
0.14081459 -0.10246041 0.625
0.14168335 -0.10229648 0.62400001
0.14387152 -0.10229648 0.62400001
0.1449656 -0.10229648 0.62400001
-0.066560037 -0.1109334 0.68400002
-0.065360762 -0.1109334 0.68400002
-0.063146301 -0.11125777 0.68600005
-0.061943512 -0.11125777 0.68600005
-0.060740728 -0.11125777 0.68600005
-0.058165081 -0.1109334 0.68400002
-0.056882516 -0.11077122 0.68300003
-0.055684991 -0.11077122 0.68300003
-0.039940935 -0.11028466 0.68000001
-0.038748667 -0.11028466 0.68000001
-0.037501171 -0.11012248 0.67900002
-0.036310658 -0.11012248 0.67900002
-0.035120144 -0.11012248 0.67900002
-0.022941491 -0.10882501 0.671
-0.021765003 -0.10882501 0.671
-0.020588517 -0.10882501 0.671
-0.01941203 -0.10882501 0.671
-0.018235544 -0.10882501 0.671
-0.0099554267 -0.10833847 0.66800004
-0.0087710498 -0.10817628 0.66700006
-0.0076015764 -0.10817628 0.66700006
-0.0029105332 -0.10768973 0.66400003
-0.00174369 -0.10752755 0.66300005
-0.00058035331 -0.10736536 0.66200006
0.0098511036 -0.10720319 0.66100001
0.015574859 -0.10671663 0.65800005
0.016703131 -0.10655445 0.65700001
0.017882247 -0.10671663 0.65800005
0.02015895 -0.10655445 0.65700001
0.02131089 -0.10655445 0.65700001
0.02239445 -0.10623008 0.65500003
0.038178831 -0.10541917 0.65000004
0.039258011 -0.10525698 0.64900005
0.040395923 -0.10525698 0.64900005
0.045943469 -0.10493261 0.64700001
0.062570326 -0.10428388 0.64300001
0.063697726 -0.10428388 0.64300001
0.064825118 -0.10428388 0.64300001
0.06595251 -0.10428388 0.64300001
0.066975579 -0.1041217 0.64200002
0.089767158 -0.1031486 0.63600004
0.091025174 -0.10331079 0.63700002
0.092966117 -0.10298642 0.63500005
0.093931325 -0.10282423 0.634
0.095042937 -0.10282423 0.634
0.099175543 -0.10249986 0.63200003
0.10028365 -0.10249986 0.63200003
0.10139176 -0.10249986 0.63200003
0.1091485 -0.10249986 0.63200003
0.11008216 -0.10233768 0.63100004
0.1227719 -0.10185114 0.62800002
0.123873 -0.10185114 0.62800002
0.12497409 -0.10185114 0.62800002
0.14605968 -0.1012024 0.62400001
-0.071565807 -0.11005498 0.68600005
-0.070363022 -0.11005498 0.68600005
-0.063146301 -0.11005498 0.68600005
-0.061943512 -0.11005498 0.68600005
-0.060740728 -0.11005498 0.68600005
-0.039940935 -0.1090924 0.68000001
-0.038748667 -0.1090924 0.68000001
-0.037501171 -0.10893197 0.67900002
-0.036310658 -0.10893197 0.67900002
-0.035120144 -0.10893197 0.67900002
-0.033929631 -0.10893197 0.67900002
-0.032690901 -0.10877154 0.67800003
-0.031502139 -0.10877154 0.67800003
-0.027853454 -0.10845068 0.67600006
-0.0266682 -0.10845068 0.67600006
-0.025445249 -0.10829025 0.67500001
-0.024225807 -0.10812982 0.67400002
-0.022975679 -0.10780896 0.67200005
-0.021797439 -0.10780896 0.67200005
-0.020588517 -0.10764853 0.671
-0.01941203 -0.10764853 0.671
-0.018235544 -0.10764853 0.671
-0.017059056 -0.10764853 0.671
-0.0158589 -0.1074881 0.67000002
-0.0087842001 -0.10716724 0.66800004
-0.00174369 -0.10636509 0.66300005
0.0087053003 -0.10620466 0.66200006
0.0098511036 -0.10604423 0.66100001
0.011010056 -0.10604423 0.66100001
0.039318498 -0.1042795 0.65000004
0.04601448 -0.10395864 0.648
0.047150638 -0.10395864 0.648
0.050481096 -0.10379821 0.64700001
0.063697726 -0.10315649 0.64300001
0.064825118 -0.10315649 0.64300001
0.069226861 -0.10299606 0.64200002
0.070242919 -0.10283563 0.64100003
0.071366802 -0.10283563 0.64100003
0.077988267 -0.1026752 0.64000005
0.079110399 -0.1026752 0.64000005
0.080232531 -0.1026752 0.64000005
0.08879143 -0.10219391 0.63700002
0.089908302 -0.10219391 0.63700002
0.091025174 -0.10219391 0.63700002
0.0919974 -0.10203348 0.63600004
0.092966117 -0.10187305 0.63500005
0.099175543 -0.10139176 0.63200003
0.10028365 -0.10139176 0.63200003
0.10139176 -0.10139176 0.63200003
0.13268174 -0.10075004 0.62800002
0.14410208 -0.10026875 0.625
0.14519791 -0.10026875 0.625
0.14605968 -0.10010832 0.62400001
0.14715376 -0.10010832 0.62400001
-0.079701275 -0.11012161 0.69400001
-0.078371368 -0.10996293 0.69300002
-0.063146301 -0.10885219 0.68600005
-0.061943512 -0.10885219 0.68600005
-0.060740728 -0.10885219 0.68600005
-0.058335152 -0.10885219 0.68600005
-0.057132367 -0.10885219 0.68600005
-0.055929579 -0.10885219 0.68600005
-0.054726794 -0.10885219 0.68600005
-0.053367961 -0.10853484 0.68400002
-0.049770121 -0.10853484 0.68400002
-0.048570842 -0.10853484 0.68400002
-0.04490725 -0.10837616 0.68300003
-0.036310658 -0.10774145 0.67900002
-0.035120144 -0.10774145 0.67900002
-0.033929631 -0.10774145 0.67900002
-0.032739118 -0.10774145 0.67900002
-0.031502139 -0.10758278 0.67800003
-0.025482947 -0.10726543 0.67600006
-0.02426175 -0.10710675 0.67500001
-0.023044059 -0.10694807 0.67400002
-0.01941203 -0.10647205 0.671
-0.018235544 -0.10647205 0.671
-0.017033633 -0.10631336 0.67000002
-0.00174369 -0.10520263 0.66300005
0.0087053003 -0.10504396 0.66200006
0.0098511036 -0.10488527 0.66100001
0.011010056 -0.10488527 0.66100001
0.034866787 -0.10345718 0.65200001
0.048286799 -0.10282248 0.648
0.049422961 -0.10282248 0.648
0.050481096 -0.1026638 0.64700001
0.051615503 -0.1026638 0.64700001
0.070242919 -0.10171174 0.64100003
0.071366802 -0.10171174 0.64100003
0.072490692 -0.10171174 0.64100003
0.076866135 -0.10155307 0.64000005
0.077988267 -0.10155307 0.64000005
0.079110399 -0.10155307 0.64000005
0.080232531 -0.10155307 0.64000005
0.08557494 -0.10123571 0.63800001
0.08879143 -0.10107704 0.63700002
0.089908302 -0.10107704 0.63700002
0.091025174 -0.10107704 0.63700002
0.092142053 -0.10107704 0.63700002
0.098377779 -0.100601 0.634
0.099175543 -0.10028365 0.63200003
0.10028365 -0.10028365 0.63200003
0.10139176 -0.10028365 0.63200003
0.12958448 -0.09980762 0.62900001
0.13047956 -0.099648945 0.62800002
0.13158065 -0.099648945 0.62800002
0.13268174 -0.099648945 0.62800002
0.13378283 -0.099648945 0.62800002
0.1403894 -0.099648945 0.62800002
0.14126518 -0.09949027 0.62700003
0.14236453 -0.09949027 0.62700003
0.14300625 -0.099172913 0.625
0.14410208 -0.099172913 0.625
0.14519791 -0.099172913 0.625
0.14629374 -0.099172913 0.625
0.14824784 -0.099014238 0.62400001
0.14934193 -0.099014238 0.62400001
-0.079586431 -0.10874787 0.69300002
-0.078371368 -0.10874787 0.69300002
-0.073192902 -0.1082771 0.69000006
-0.071774453 -0.10796325 0.68800002
-0.070465587 -0.10780633 0.68700004
-0.067957446 -0.10764941 0.68600005
-0.066754662 -0.10764941 0.68600005
-0.065360762 -0.10733556 0.68400002
-0.058335152 -0.10764941 0.68600005
-0.057132367 -0.10764941 0.68600005
-0.055929579 -0.10764941 0.68600005
-0.054726794 -0.10764941 0.68600005
-0.053367961 -0.10733556 0.68400002
-0.033929631 -0.10655094 0.67900002
-0.032739118 -0.10655094 0.67900002
-0.027935861 -0.10639402 0.67800003
-0.0267471 -0.10639402 0.67800003
-0.025482947 -0.10608017 0.67600006
-0.024297694 -0.10608017 0.67600006
-0.02307825 -0.10592325 0.67500001
-0.021862313 -0.10576633 0.67400002
-0.01944096 -0.10545248 0.67200005
-0.018235544 -0.10529555 0.671
-0.017033633 -0.10513863 0.67000002
-0.0158589 -0.10513863 0.67000002
-0.014684167 -0.10513863 0.67000002
-0.0123347 -0.10513863 0.67000002
-0.011126653 -0.10482479 0.66800004
-0.0099554267 -0.10482479 0.66800004
-0.0029105332 -0.10419709 0.66400003
-0.0017463199 -0.10419709 0.66400003
-0.00058122998 -0.10404017 0.66300005
0.0052231802 -0.10388324 0.66200006
0.0087053003 -0.10388324 0.66200006
0.0098511036 -0.10372632 0.66100001
0.011010056 -0.10372632 0.66100001
0.019035939 -0.10325556 0.65800005
0.072490692 -0.10058785 0.64100003
0.073614575 -0.10058785 0.64100003
0.09630622 -0.099646315 0.63500005
0.10282423 -0.099489391 0.634
0.12076171 -0.098704778 0.62900001
0.12186456 -0.098704778 0.62900001
0.1229674 -0.098704778 0.62900001
0.12958448 -0.098704778 0.62900001
0.13068733 -0.098704778 0.62900001
0.13158065 -0.098547854 0.62800002
0.1403894 -0.098547854 0.62800002
0.14149049 -0.098547854 0.62800002
0.14259158 -0.098547854 0.62800002
0.14346386 -0.098390929 0.62700003
0.14456321 -0.098390929 0.62700003
0.14566255 -0.098390929 0.62700003
0.14629374 -0.098077081 0.625
0.14738958 -0.098077081 0.625
0.14848542 -0.098077081 0.625
0.14934193 -0.097920157 0.62400001
0.150436 -0.097920157 0.62400001
0.15177292 -0.098077081 0.625
-0.079701275 -0.10768798 0.69400001
-0.078484461 -0.10768798 0.69400001
-0.073298976 -0.10722247 0.69100004
-0.071983099 -0.1070673 0.69000006
-0.070568159 -0.10675696 0.68800002
-0.069261052 -0.10660179 0.68700004
-0.068056509 -0.10660179 0.68700004
-0.066754662 -0.10644662 0.68600005
-0.065360762 -0.10613628 0.68400002
-0.061943512 -0.10644662 0.68600005
-0.060740728 -0.10644662 0.68600005
-0.057132367 -0.10644662 0.68600005
-0.056011111 -0.10660179 0.68700004
-0.054806571 -0.10660179 0.68700004
-0.053524006 -0.10644662 0.68600005
-0.04490725 -0.10598111 0.68300003
-0.043773718 -0.10613628 0.68400002
-0.042512197 -0.10598111 0.68300003
-0.041254181 -0.10582594 0.68200004
-0.035171866 -0.1055156 0.68000001
-0.0267471 -0.10520526 0.67800003
-0.025558339 -0.10520526 0.67800003
-0.024297694 -0.10489492 0.67600006
-0.02311244 -0.10489492 0.67600006
-0.021894749 -0.10473975 0.67500001
-0.020619201 -0.10427424 0.67200005
-0.01944096 -0.10427424 0.67200005
-0.01826272 -0.10427424 0.67200005
-0.017059056 -0.10411907 0.671
-0.0158589 -0.1039639 0.67000002
-0.014684167 -0.1039639 0.67000002
-0.013509433 -0.1039639 0.67000002
-0.0123347 -0.1039639 0.67000002
-0.011159967 -0.1039639 0.67000002
-0.0099852337 -0.1039639 0.67000002
-0.0029105332 -0.10303288 0.66400003
-0.0017463199 -0.10303288 0.66400003
-0.00058210664 -0.10303288 0.66400003
0.0040624733 -0.10272254 0.66200006
0.0052231802 -0.10272254 0.66200006
0.0063838866 -0.10272254 0.66200006
0.041597832 -0.1008605 0.65000004
0.072490692 -0.099463969 0.64100003
0.073729418 -0.099619143 0.64200002
0.096457876 -0.098688118 0.63600004
0.11468904 -0.09806744 0.63200003
0.11561392 -0.097912267 0.63100004
0.11672027 -0.097912267 0.63100004
0.1198491 -0.097757101 0.63000005
0.12076171 -0.097601928 0.62900001
0.12186456 -0.097601928 0.62900001
0.1229674 -0.097601928 0.62900001
0.13708612 -0.097446762 0.62800002
0.13818721 -0.097446762 0.62800002
0.1395101 -0.097601928 0.62900001
0.14061294 -0.097601928 0.62900001
0.14171579 -0.097601928 0.62900001
0.14281864 -0.097601928 0.62900001
0.14369267 -0.097446762 0.62800002
0.14479378 -0.097446762 0.62800002
0.14589487 -0.097446762 0.62800002
0.14699596 -0.097446762 0.62800002
0.14786123 -0.097291589 0.62700003
0.14848542 -0.09698125 0.625
0.15067708 -0.09698125 0.625
0.15177292 -0.09698125 0.625
0.15286875 -0.09698125 0.625
0.15396458 -0.09698125 0.625
-0.08383213 -0.10708483 0.69800001
-0.073298976 -0.10601091 0.69100004
-0.072087422 -0.10601091 0.69100004
-0.070773296 -0.1058575 0.69000006
-0.069563501 -0.1058575 0.69000006
-0.068155572 -0.10555067 0.68800002
-0.066754662 -0.10524383 0.68600005
-0.06203381 -0.10539725 0.68700004
-0.060829271 -0.10539725 0.68700004
-0.035171866 -0.10432333 0.68000001
-0.033979598 -0.10432333 0.68000001
-0.032787334 -0.10432333 0.68000001
-0.025558339 -0.1040165 0.67800003
-0.024297694 -0.10370967 0.67600006
-0.02311244 -0.10370967 0.67600006
-0.021894749 -0.10355625 0.67500001
-0.020680567 -0.10340283 0.67400002
-0.019498819 -0.10340283 0.67400002
-0.01826272 -0.103096 0.67200005
-0.017084479 -0.103096 0.67200005
-0.01588257 -0.10294259 0.671
-0.014706084 -0.10294259 0.671
-0.011126653 -0.10248233 0.66800004
-0.0029193 -0.1021755 0.66600001
-0.0017463199 -0.10186867 0.66400003
-0.00058210664 -0.10186867 0.66400003
0.059464298 -0.099107169 0.64600003
0.072490692 -0.098340079 0.64100003
0.076986238 -0.098340079 0.64100003
0.08696533 -0.098186664 0.64000005
0.088225104 -0.098340079 0.64100003
0.088930823 -0.097879834 0.63800001
0.1209537 -0.0966525 0.63000005
0.1220583 -0.0966525 0.63000005
0.1229674 -0.096499085 0.62900001
0.1395101 -0.096499085 0.62900001
0.14369267 -0.096345663 0.62800002
0.14479378 -0.096345663 0.62800002
0.14589487 -0.096345663 0.62800002
0.14699596 -0.096345663 0.62800002
0.14786123 -0.096192248 0.62700003
0.14848542 -0.095885418 0.625
0.15067708 -0.095885418 0.625
0.15177292 -0.095885418 0.625
0.15286875 -0.095885418 0.625
0.15506041 -0.095885418 0.625
-0.083712026 -0.10570934 0.69700003
-0.078484461 -0.10525435 0.69400001
-0.077156313 -0.10510269 0.69300002
-0.07594125 -0.10510269 0.69300002
-0.072087422 -0.10479936 0.69100004
-0.070773296 -0.1046477 0.69000006
-0.043773718 -0.10373772 0.68400002
-0.042574439 -0.10373772 0.68400002
-0.041314669 -0.10358606 0.68300003
-0.02318082 -0.10282774 0.67800003
-0.021927187 -0.10252441 0.67600006
-0.020711251 -0.10237275 0.67500001
0.045016833 -0.098581165 0.65000004
0.0461565 -0.098581165 0.65000004
0.047223404 -0.098429501 0.64900005
0.052912969 -0.098429501 0.64900005
0.075862348 -0.097216196 0.64100003
0.076986238 -0.097216196 0.64100003
0.078110121 -0.097216196 0.64100003
0.083729558 -0.097216196 0.64100003
0.087101214 -0.097216196 0.64100003
0.088225104 -0.097216196 0.64100003
0.088930823 -0.096761204 0.63800001
0.12958448 -0.095396236 0.62900001
0.13068733 -0.095396236 0.62900001
0.13179018 -0.095396236 0.62900001
0.1395101 -0.095396236 0.62900001
0.14061294 -0.095396236 0.62900001
0.14589487 -0.095244572 0.62800002
0.14699596 -0.095244572 0.62800002
0.14786123 -0.095092908 0.62700003
0.14896058 -0.095092908 0.62700003
0.15506041 -0.09478958 0.625
0.15615624 -0.09478958 0.625
-0.078484461 -0.10403754 0.69400001
-0.077156313 -0.10388763 0.69300002
-0.07594125 -0.10388763 0.69300002
-0.074726187 -0.10388763 0.69300002
-0.067241207 -0.10358781 0.69100004
-0.046307288 -0.10283826 0.68600005
-0.0451045 -0.10283826 0.68600005
-0.043773718 -0.10253844 0.68400002
-0.032787334 -0.1019388 0.68000001
-0.02318082 -0.10163898 0.67800003
-0.021927187 -0.10133916 0.67600006
-0.020711251 -0.10118925 0.67500001
-0.019498819 -0.10103934 0.67400002
-0.01588257 -0.10058961 0.671
0.06522838 -0.09699177 0.64700001
0.066260219 -0.096841857 0.64600003
0.068313375 -0.096542038 0.64400005
0.069442518 -0.096542038 0.64400005
0.088225104 -0.096092306 0.64100003
0.13840726 -0.094293386 0.62900001
0.1395101 -0.094293386 0.62900001
0.14061294 -0.094293386 0.62900001
0.14786123 -0.093993567 0.62700003
0.14896058 -0.093993567 0.62700003
0.15725209 -0.093693748 0.625
0.15834792 -0.093693748 0.625
-0.078484461 -0.10282072 0.69400001
-0.077267647 -0.10282072 0.69400001
-0.07594125 -0.10267257 0.69300002
-0.046307288 -0.10163547 0.68600005
-0.0451045 -0.10163547 0.68600005
-0.043901712 -0.10163547 0.68600005
-0.042698927 -0.10163547 0.68600005
-0.041496139 -0.10163547 0.68600005
-0.034079541 -0.10104284 0.68200004
-0.032883767 -0.10104284 0.68200004
-0.031595066 -0.10074653 0.68000001
-0.0304028 -0.10074653 0.68000001
-0.029210534 -0.10074653 0.68000001
-0.028018266 -0.10074653 0.68000001
-0.02318082 -0.10045022 0.67800003
-0.021927187 -0.10015391 0.67600006
-0.020741934 -0.10015391 0.67600006
-0.01952775 -0.10000575 0.67500001
-0.017135326 -0.099857591 0.67400002
-0.015906241 -0.099561282 0.67200005
-0.014706084 -0.099413119 0.671
0.031581916 -0.097042613 0.65500003
0.032730348 -0.097042613 0.65500003
0.05955635 -0.095857359 0.64700001
0.060690757 -0.095857359 0.64700001
0.064093977 -0.095857359 0.64700001
0.06522838 -0.095857359 0.64700001
0.066260219 -0.095709205 0.64600003
0.067392871 -0.095709205 0.64600003
0.068525523 -0.095709205 0.64600003
0.091168076 -0.094523951 0.63800001
0.092286699 -0.094523951 0.63800001
0.093405329 -0.094523951 0.63800001
0.1253721 -0.093338698 0.63000005
0.12647671 -0.093338698 0.63000005
0.1275813 -0.093338698 0.63000005
0.1375227 -0.093338698 0.63000005
0.13862731 -0.093338698 0.63000005
0.1397319 -0.093338698 0.63000005
0.14083649 -0.093338698 0.63000005
0.1555566 -0.092894226 0.62700003
0.15665595 -0.092894226 0.62700003
0.15775529 -0.092894226 0.62700003
0.15995397 -0.092894226 0.62700003
0.16053958 -0.092597917 0.625
-0.079930961 -0.10189672 0.69600004
-0.078484461 -0.10160391 0.69400001
-0.077267647 -0.10160391 0.69400001
-0.076050833 -0.10160391 0.69400001
-0.062575586 -0.10145751 0.69300002
-0.057548784 -0.10116471 0.69100004
-0.04637479 -0.10057909 0.68700004
-0.0451045 -0.10043269 0.68600005
-0.043901712 -0.10043269 0.68600005
-0.032883767 -0.099847071 0.68200004
-0.021992059 -0.099261463 0.67800003
-0.020741934 -0.098968655 0.67600006
-0.019556681 -0.098968655 0.67600006
-0.01595358 -0.098675847 0.67400002
0.052994501 -0.095162168 0.65000004
0.068525523 -0.094576553 0.64600003
0.079234011 -0.093844533 0.64100003
0.083729558 -0.093844533 0.64100003
0.092575997 -0.093698129 0.64000005
0.13862731 -0.092234097 0.63000005
0.1397319 -0.092234097 0.63000005
0.14723003 -0.092087694 0.62900001
0.14809705 -0.09194129 0.62800002
0.14919814 -0.09194129 0.62800002
0.15029924 -0.09194129 0.62800002
0.15140033 -0.09194129 0.62800002
0.15580471 -0.09194129 0.62800002
0.1569058 -0.09194129 0.62800002
0.15775529 -0.091794886 0.62700003
0.15885463 -0.091794886 0.62700003
0.15995397 -0.091794886 0.62700003
0.16105331 -0.091794886 0.62700003
0.16163541 -0.091502085 0.625
0.16273125 -0.091502085 0.625
-0.084934093 -0.10082105 0.69700003
-0.083712026 -0.10082105 0.69700003
-0.082489952 -0.10082105 0.69700003
-0.081267878 -0.10082105 0.69700003
-0.079930961 -0.1006764 0.69600004
-0.078710638 -0.1006764 0.69600004
-0.077267647 -0.1003871 0.69400001
-0.070168398 -0.1006764 0.69600004
-0.068948083 -0.1006764 0.69600004
-0.067533143 -0.1003871 0.69400001
-0.062575586 -0.10024245 0.69300002
-0.058930408 -0.10024245 0.69300002
-0.057715349 -0.10024245 0.69300002
-0.05633723 -0.099953152 0.69100004
-0.028018266 -0.098361999 0.68000001
-0.026826 -0.098361999 0.68000001
-0.025633734 -0.098361999 0.68000001
-0.024405522 -0.098217346 0.67900002
-0.023215011 -0.098217346 0.67900002
0.020281684 -0.095613651 0.66100001
0.021375762 -0.095324352 0.65900004
0.02253121 -0.095324352 0.65900004
0.028265487 -0.095179699 0.65800005
0.051854834 -0.094022498 0.65000004
0.052994501 -0.094022498 0.65000004
0.054134168 -0.094022498 0.65000004
0.066362791 -0.093588546 0.64700001
0.074971654 -0.093009949 0.64300001
0.078231983 -0.092865296 0.64200002
0.079357617 -0.092865296 0.64200002
0.10649396 -0.0919974 0.63600004
0.10743988 -0.091852747 0.63500005
0.10855325 -0.091852747 0.63500005
0.13862731 -0.091129497 0.63000005
0.1399537 -0.09127415 0.63100004
0.14083649 -0.091129497 0.63000005
0.1419411 -0.091129497 0.63000005
0.14281864 -0.090984851 0.62900001
0.14392149 -0.090984851 0.62900001
0.14502433 -0.090984851 0.62900001
0.14612718 -0.090984851 0.62900001
0.14699596 -0.090840198 0.62800002
0.14919814 -0.090840198 0.62800002
0.15029924 -0.090840198 0.62800002
0.15140033 -0.090840198 0.62800002
0.15580471 -0.090840198 0.62800002
0.1569058 -0.090840198 0.62800002
0.15800689 -0.090840198 0.62800002
0.15885463 -0.090695553 0.62700003
0.15995397 -0.090695553 0.62700003
0.16053958 -0.090406246 0.625
0.16163541 -0.090406246 0.625
0.16273125 -0.090406246 0.625
0.16382708 -0.090406246 0.625
-0.081267878 -0.099598974 0.69700003
-0.080045804 -0.099598974 0.69700003
-0.078710638 -0.099456079 0.69600004
-0.077490322 -0.099456079 0.69600004
-0.071388721 -0.099456079 0.69600004
-0.07026922 -0.099598974 0.69700003
-0.069047146 -0.099598974 0.69700003
-0.067727759 -0.099456079 0.69600004
-0.066507436 -0.099456079 0.69600004
-0.065287121 -0.099456079 0.69600004
-0.063882701 -0.099170282 0.69400001
-0.062665887 -0.099170282 0.69400001
-0.057715349 -0.099027388 0.69300002
-0.025633734 -0.097169735 0.68000001
-0.020741934 -0.096598148 0.67600006
-0.01597725 -0.096455246 0.67500001
-0.014771833 -0.096312352 0.67400002
0.052994501 -0.092882834 0.65000004
0.054134168 -0.092882834 0.65000004
0.066362791 -0.092454143 0.64700001
0.083729558 -0.09159676 0.64100003
0.084853441 -0.09159676 0.64100003
0.091453865 -0.091453865 0.64000005
0.092575997 -0.091453865 0.64000005
0.093698129 -0.091453865 0.64000005
0.13884734 -0.090167798 0.63100004
0.1399537 -0.090167798 0.63100004
0.14083649 -0.090024896 0.63000005
0.14281864 -0.089882001 0.62900001
0.14392149 -0.089882001 0.62900001
0.14502433 -0.089882001 0.62900001
0.15029924 -0.089739107 0.62800002
0.15140033 -0.089739107 0.62800002
0.15470362 -0.089739107 0.62800002
0.15580471 -0.089739107 0.62800002
0.1569058 -0.089739107 0.62800002
0.15800689 -0.089739107 0.62800002
0.15885463 -0.089596212 0.62700003
0.15995397 -0.089596212 0.62700003
0.16053958 -0.089310415 0.625
0.16163541 -0.089310415 0.625
0.16273125 -0.089310415 0.625
0.16382708 -0.089310415 0.625
0.16465904 -0.08916752 0.62400001
0.16601875 -0.089310415 0.625
-0.087503605 -0.098518044 0.69800001
-0.086526997 -0.098800331 0.70000005
-0.082489952 -0.0983769 0.69700003
-0.081384473 -0.098518044 0.69800001
-0.080045804 -0.0983769 0.69700003
-0.07882373 -0.0983769 0.69700003
-0.071491286 -0.0983769 0.69700003
-0.07026922 -0.0983769 0.69700003
-0.069047146 -0.0983769 0.69700003
-0.064066797 -0.098235756 0.69600004
-0.062665887 -0.097953476 0.69400001
-0.061360531 -0.097812332 0.69300002
-0.052702568 -0.097530045 0.69100004
-0.048996899 -0.097388901 0.69000006
-0.047648586 -0.097106613 0.68800002
-0.04637479 -0.096965469 0.68700004
-0.0329802 -0.096542038 0.68400002
-0.017160749 -0.095271751 0.67500001
-0.01597725 -0.095271751 0.67500001
-0.014771833 -0.095130607 0.67400002
-0.010044847 -0.095130607 0.67400002
-0.0088368002 -0.09484832 0.67200005
-0.0076585598 -0.09484832 0.67200005
0.077226445 -0.090755165 0.64300001
0.083860181 -0.090614021 0.64200002
0.084985822 -0.090614021 0.64200002
0.085843198 -0.090331733 0.64000005
0.091453865 -0.090331733 0.64000005
0.092575997 -0.090331733 0.64000005
0.11505198 -0.08948487 0.634
0.11634681 -0.089626014 0.63500005
0.11690525 -0.089202583 0.63200003
0.11949843 -0.08948487 0.634
0.12061004 -0.08948487 0.634
0.12172166 -0.08948487 0.634
0.13906738 -0.089202583 0.63200003
0.1399537 -0.089061439 0.63100004
0.14083649 -0.088920303 0.63000005
0.14304569 -0.088920303 0.63000005
0.14392149 -0.088779159 0.62900001
0.14502433 -0.088779159 0.62900001
0.16053958 -0.088214584 0.625
0.16163541 -0.088214584 0.625
0.16273125 -0.088214584 0.625
0.16382708 -0.088214584 0.625
0.16465904 -0.08807344 0.62400001
0.16575313 -0.08807344 0.62400001
0.1668472 -0.08807344 0.62400001
0.16821042 -0.088214584 0.625
-0.088130422 -0.097991168 0.70300001
-0.08665061 -0.09771239 0.70100003
-0.085421525 -0.09771239 0.70100003
-0.084072329 -0.097572997 0.70000005
-0.082489952 -0.097154826 0.69700003
-0.081384473 -0.097294219 0.69800001
-0.080045804 -0.097154826 0.69700003
-0.07882373 -0.097154826 0.69700003
-0.071491286 -0.097154826 0.69700003
-0.07026922 -0.097154826 0.69700003
-0.069047146 -0.097154826 0.69700003
-0.064066797 -0.09701544 0.69600004
-0.062846482 -0.09701544 0.69600004
-0.061449073 -0.096736662 0.69400001
-0.0329802 -0.095342763 0.68400002
-0.017160749 -0.094088249 0.67500001
-0.01597725 -0.094088249 0.67500001
-0.01479375 -0.094088249 0.67500001
0.038472515 -0.09130045 0.65500003
0.03956046 -0.091161057 0.65400004
0.069658183 -0.090045936 0.64600003
0.070790835 -0.090045936 0.64600003
0.071700811 -0.089767158 0.64400005
0.077226445 -0.089627773 0.64300001
0.078353837 -0.089627773 0.64300001
0.11171714 -0.088373259 0.634
0.11282875 -0.088373259 0.634
0.12577011 -0.08809448 0.63200003
0.12687822 -0.08809448 0.63200003
0.12798631 -0.08809448 0.63200003
0.13442193 -0.087955087 0.63100004
0.13552828 -0.087955087 0.63100004
0.13663463 -0.087955087 0.63100004
0.13795927 -0.08809448 0.63200003
0.13906738 -0.08809448 0.63200003
0.1399537 -0.087955087 0.63100004
0.14106005 -0.087955087 0.63100004
0.14392149 -0.087676309 0.62900001
0.14502433 -0.087676309 0.62900001
0.14612718 -0.087676309 0.62900001
0.14723003 -0.087676309 0.62900001
0.14833288 -0.087676309 0.62900001
0.14943573 -0.087676309 0.62900001
0.1560528 -0.087676309 0.62900001
0.15715565 -0.087676309 0.62900001
0.1582585 -0.087676309 0.62900001
0.15910798 -0.087536916 0.62800002
0.15995397 -0.087397531 0.62700003
0.16053958 -0.087118752 0.625
0.16163541 -0.087118752 0.625
0.16273125 -0.087118752 0.625
0.16382708 -0.087118752 0.625
0.16492292 -0.087118752 0.625
0.16601875 -0.087118752 0.625
0.16711459 -0.087118752 0.625
0.16821042 -0.087118752 0.625
0.16930625 -0.087118752 0.625
0.17040208 -0.087118752 0.625
-0.090982221 -0.097171485 0.70600003
-0.089490131 -0.096896216 0.70400006
-0.088130422 -0.096758574 0.70300001
-0.086897828 -0.096758574 0.70300001
-0.085665233 -0.096758574 0.70300001
-0.084192432 -0.096483305 0.70100003
-0.082963347 -0.096483305 0.70100003
-0.081734262 -0.096483305 0.70100003
-0.080390334 -0.096345663 0.70000005
-0.079163 -0.096345663 0.70000005
-0.039090566 -0.094418749 0.68600005
-0.037887778 -0.094418749 0.68600005
-0.036684994 -0.094418749 0.68600005
0.020312367 -0.091115475 0.66200006
0.021440636 -0.090977833 0.66100001
0.022599589 -0.090977833 0.66100001
0.03513417 -0.090427287 0.65700001
0.036286108 -0.090427287 0.65700001
0.037324082 -0.090152018 0.65500003
0.038472515 -0.090152018 0.65500003
0.039620951 -0.090152018 0.65500003
0.062016275 -0.089326195 0.64900005
0.069658183 -0.088913284 0.64600003
0.070790835 -0.088913284 0.64600003
0.071700811 -0.088638015 0.64400005
0.077346548 -0.088638015 0.64400005
0.078353837 -0.088500373 0.64300001
0.088225104 -0.088225104 0.64100003
0.12577011 -0.08698637 0.63200003
0.12687822 -0.08698637 0.63200003
0.12798631 -0.08698637 0.63200003
0.13552828 -0.086848736 0.63100004
0.13663463 -0.086848736 0.63100004
0.14723003 -0.086573459 0.62900001
0.14833288 -0.086573459 0.62900001
0.14943573 -0.086573459 0.62900001
0.15715565 -0.086573459 0.62900001
0.1582585 -0.086573459 0.62900001
0.15910798 -0.086435825 0.62800002
0.15995397 -0.08629819 0.62700003
0.16105331 -0.08629819 0.62700003
0.16163541 -0.086022913 0.625
0.16273125 -0.086022913 0.625
0.16382708 -0.086022913 0.625
0.16492292 -0.086022913 0.625
0.16601875 -0.086022913 0.625
0.16711459 -0.086022913 0.625
0.16821042 -0.086022913 0.625
0.16930625 -0.086022913 0.625
0.17040208 -0.086022913 0.625
0.17149791 -0.086022913 0.625
-0.089490131 -0.095661864 0.70400006
-0.088130422 -0.09552598 0.70300001
-0.086897828 -0.09552598 0.70300001
-0.080505177 -0.095254213 0.70100003
-0.01961454 -0.092128903 0.67800003
-0.018371427 -0.091857135 0.67600006
-0.017186172 -0.091857135 0.67600006
0.077346548 -0.087508865 0.64400005
0.14833288 -0.085470617 0.62900001
0.16105331 -0.085198849 0.62700003
0.16215265 -0.085198849 0.62700003
0.163252 -0.085198849 0.62700003
0.16435133 -0.085198849 0.62700003
0.16545066 -0.085198849 0.62700003
0.16655001 -0.085198849 0.62700003
0.16764934 -0.085198849 0.62700003
0.16874869 -0.085198849 0.62700003
0.16930625 -0.084927082 0.625
0.17040208 -0.084927082 0.625
0.17149791 -0.084927082 0.625
0.17259374 -0.084927082 0.625
-0.092350699 -0.09482991 0.70700002
-0.080505177 -0.094025128 0.70100003
-0.056581821 -0.09308622 0.69400001
-0.05528523 -0.092952088 0.69300002
-0.054070171 -0.092952088 0.69300002
-0.01961454 -0.09094014 0.67800003
-0.018371427 -0.090671882 0.67600006
-0.017237021 -0.09094014 0.67800003
0.01109334 -0.089330576 0.66600001
0.01226106 -0.089330576 0.66600001
0.055443905 -0.087452762 0.65200001
0.098340079 -0.085977331 0.64100003
0.099463969 -0.085977331 0.64100003
0.10043094 -0.085843198 0.64000005
0.16461346 -0.084233642 0.62800002
0.16571455 -0.084233642 0.62800002
0.16681564 -0.084233642 0.62800002
0.16984802 -0.084099509 0.62700003
0.17094737 -0.084099509 0.62700003
0.17204671 -0.084099509 0.62700003
0.17259374 -0.083831251 0.625
0.17368959 -0.083831251 0.625
-0.093590304 -0.093590304 0.70700002
-0.092481323 -0.093722679 0.708
-0.088506512 -0.09345793 0.70600003
-0.080734864 -0.093060799 0.70300001
-0.07558883 -0.092796043 0.70100003
-0.074359745 -0.092796043 0.70100003
-0.070672482 -0.092796043 0.70100003
-0.055524558 -0.092134163 0.69600004
-0.025709126 -0.090280883 0.68200004
0.073056139 -0.085515328 0.64600003
0.11206956 -0.084191561 0.63600004
0.11318468 -0.084191561 0.63600004
0.16708127 -0.083264925 0.62900001
0.16791673 -0.083132543 0.62800002
0.16901782 -0.083132543 0.62800002
0.17011891 -0.083132543 0.62800002
0.17094737 -0.083000168 0.62700003
0.17204671 -0.083000168 0.62700003
0.17314605 -0.083000168 0.62700003
0.17368959 -0.082735419 0.625
0.17478542 -0.082735419 0.625
0.17588125 -0.082735419 0.625
-0.09482991 -0.092350699 0.70700002
-0.093590304 -0.092350699 0.70700002
-0.092481323 -0.092481323 0.708
-0.091111086 -0.092350699 0.70700002
-0.089871481 -0.092350699 0.70700002
-0.083318397 -0.091958828 0.70400006
-0.082084052 -0.091958828 0.70400006
-0.080849707 -0.091958828 0.70400006
-0.055524558 -0.09091384 0.69600004
-0.0269049 -0.08908511 0.68200004
-0.025709126 -0.08908511 0.68200004
-0.024513353 -0.08908511 0.68200004
0.042109806 -0.085950151 0.65800005
0.045363117 -0.08555828 0.65500003
0.04651155 -0.08555828 0.65500003
0.047659982 -0.08555828 0.65500003
0.064292103 -0.084774546 0.64900005
0.073169231 -0.084513299 0.64700001
0.13020253 -0.082553945 0.63200003
0.13110287 -0.082423322 0.63100004
0.13220923 -0.082423322 0.63100004
0.1540917 -0.082292698 0.63000005
0.15519629 -0.082292698 0.63000005
0.1563009 -0.082292698 0.63000005
0.16597842 -0.082162075 0.62900001
0.16708127 -0.082162075 0.62900001
0.17204671 -0.081900828 0.62700003
0.17314605 -0.081900828 0.62700003
0.17424539 -0.081900828 0.62700003
0.17478542 -0.08163958 0.625
0.17588125 -0.08163958 0.625
-0.09482991 -0.091111086 0.70700002
-0.093590304 -0.091111086 0.70700002
-0.092481323 -0.091239959 0.708
-0.091111086 -0.091111086 0.70700002
-0.089871481 -0.091111086 0.70700002
-0.088631876 -0.091111086 0.70700002
-0.087392271 -0.091111086 0.70700002
-0.086152665 -0.091111086 0.70700002
-0.084913053 -0.091111086 0.70700002
-0.075804487 -0.09059561 0.70300001
-0.070672482 -0.090337873 0.70100003
-0.069443397 -0.090337873 0.70100003
-0.068117 -0.090209 0.70000005
-0.056744881 -0.089693516 0.69600004
-0.055524558 -0.089693516 0.69600004
0.13131064 -0.081445843 0.63200003
0.13220923 -0.08131697 0.63100004
0.13685118 -0.081445843 0.63200003
0.13839586 -0.081703581 0.634
0.13950747 -0.081703581 0.634
0.14769816 -0.08131697 0.63100004
0.14880452 -0.08131697 0.63100004
0.14991088 -0.08131697 0.63100004
0.15519629 -0.081188098 0.63000005
0.1563009 -0.081188098 0.63000005
0.1585101 -0.081188098 0.63000005
0.1596147 -0.081188098 0.63000005
0.16071931 -0.081188098 0.63000005
0.16597842 -0.081059232 0.62900001
0.16708127 -0.081059232 0.62900001
0.16818412 -0.081059232 0.62900001
0.16928697 -0.081059232 0.62900001
0.17011891 -0.08093036 0.62800002
0.17122002 -0.08093036 0.62800002
0.17232111 -0.08093036 0.62800002
0.17314605 -0.080801487 0.62700003
0.17644407 -0.080801487 0.62700003
-0.09482991 -0.089871481 0.70700002
-0.093590304 -0.089871481 0.70700002
-0.092481323 -0.089998603 0.708
-0.089871481 -0.089871481 0.70700002
-0.088631876 -0.089871481 0.70700002
-0.087392271 -0.089871481 0.70700002
-0.086152665 -0.089871481 0.70700002
-0.085033156 -0.089998603 0.708
-0.082433842 -0.089871481 0.70700002
-0.081079394 -0.089744367 0.70600003
-0.079841539 -0.089744367 0.70600003
-0.077146664 -0.089490131 0.70400006
-0.075804487 -0.089363016 0.70300001
-0.074571893 -0.089363016 0.70300001
-0.069443397 -0.08910878 0.70100003
-0.068214312 -0.08910878 0.70100003
-0.066889666 -0.088981666 0.70000005
-0.059270557 -0.088600315 0.69700003
-0.058048483 -0.088600315 0.69700003
-0.056826409 -0.088600315 0.69700003
-0.055604335 -0.088600315 0.69700003
-0.054382265 -0.088600315 0.69700003
-0.053083919 -0.088473201 0.69600004
-0.051714566 -0.088218965 0.69400001
-0.046644803 -0.087837614 0.69100004
-0.045433249 -0.087837614 0.69100004
-0.044157699 -0.0877105 0.69000006
-0.00650925 -0.085803747 0.67500001
0.10235434 -0.081100434 0.63800001
0.10347296 -0.081100434 0.63800001
0.10459159 -0.081100434 0.63800001
0.13728425 -0.080591969 0.634
0.13861415 -0.080719084 0.63500005
0.13972752 -0.080719084 0.63500005
0.14084089 -0.080719084 0.63500005
0.14195424 -0.080719084 0.63500005
0.14506555 -0.080591969 0.634
0.14617716 -0.080591969 0.634
0.14793225 -0.080337733 0.63200003
0.14880452 -0.080210619 0.63100004
0.14991088 -0.080210619 0.63100004
0.1585101 -0.080083497 0.63000005
0.15986806 -0.080210619 0.63100004
0.16071931 -0.080083497 0.63000005
0.16513769 -0.080083497 0.63000005
0.1662423 -0.080083497 0.63000005
0.16734689 -0.080083497 0.63000005
0.16818412 -0.079956383 0.62900001
0.16928697 -0.079956383 0.62900001
0.17038982 -0.079956383 0.62900001
0.17122002 -0.079829268 0.62800002
0.17232111 -0.079829268 0.62800002
0.1734222 -0.079829268 0.62800002
0.17452329 -0.079829268 0.62800002
0.17534474 -0.079702146 0.62700003
0.17644407 -0.079702146 0.62700003
0.1775434 -0.079702146 0.62700003
-0.097722031 -0.089007966 0.71000004
-0.093722679 -0.088757239 0.708
-0.092481323 -0.088757239 0.708
-0.089871481 -0.088631876 0.70700002
-0.088631876 -0.088631876 0.70700002
-0.087392271 -0.088631876 0.70700002
-0.08627452 -0.088757239 0.708
-0.085033156 -0.088757239 0.708
-0.0837918 -0.088757239 0.708
-0.082433842 -0.088631876 0.70700002
-0.081194237 -0.088631876 0.70700002
-0.079954632 -0.088631876 0.70700002
-0.077365831 -0.088506512 0.70600003
-0.075912319 -0.088255785 0.70400006
-0.074571893 -0.088130422 0.70300001
-0.068214312 -0.087879695 0.70100003
-0.059355594 -0.087503605 0.69800001
-0.058048483 -0.087378241 0.69700003
-0.056826409 -0.087378241 0.69700003
-0.054382265 -0.087378241 0.69700003
-0.053083919 -0.087252878 0.69600004
-0.051714566 -0.087002151 0.69400001
-0.046779811 -0.086876787 0.69300002
-0.045433249 -0.08662606 0.69100004
-0.044221696 -0.08662606 0.69100004
-0.0429479 -0.086500697 0.69000006
-0.00650925 -0.084620252 0.67500001
0.051105283 -0.082112983 0.65500003
0.13861415 -0.079605713 0.63500005
0.13972752 -0.079605713 0.63500005
0.14084089 -0.079605713 0.63500005
0.14418098 -0.079605713 0.63500005
0.14529435 -0.079605713 0.63500005
0.14640771 -0.079605713 0.63500005
0.14904034 -0.079229623 0.63200003
0.15014845 -0.079229623 0.63200003
0.1587617 -0.07910426 0.63100004
0.15986806 -0.07910426 0.63100004
0.16097441 -0.07910426 0.63100004
0.1662423 -0.078978896 0.63000005
0.16734689 -0.078978896 0.63000005
0.1684515 -0.078978896 0.63000005
0.1695561 -0.078978896 0.63000005
0.17038982 -0.078853533 0.62900001
0.17149265 -0.078853533 0.62900001
0.1734222 -0.078728169 0.62800002
0.17452329 -0.078728169 0.62800002
0.17562439 -0.078728169 0.62800002
0.17672548 -0.078728169 0.62800002
0.17782657 -0.078728169 0.62800002
0.17892766 -0.078728169 0.62800002
0.18002875 -0.078728169 0.62800002
-0.089998603 -0.087515883 0.708
-0.088757239 -0.087515883 0.708
-0.087515883 -0.087515883 0.708
-0.08627452 -0.087515883 0.708
-0.085033156 -0.087515883 0.708
-0.084028497 -0.087763101 0.71000004
-0.082550436 -0.087515883 0.708
-0.076127976 -0.087268658 0.70600003
-0.050497752 -0.085785337 0.69400001
-0.04920993 -0.085661732 0.69300002
-0.047994871 -0.085661732 0.69300002
-0.046779811 -0.085661732 0.69300002
-0.045564748 -0.085661732 0.69300002
-0.034329388 -0.084920071 0.68700004
-0.033124849 -0.084920071 0.68700004
-0.03192031 -0.084920071 0.68700004
-0.01129322 -0.08380758 0.67800003
0.0261948 -0.082077041 0.66400003
0.039983891 -0.081706211 0.66100001
0.14529435 -0.078492351 0.63500005
0.14640771 -0.078492351 0.63500005
0.15790521 -0.078121521 0.63200003
0.1590133 -0.078121521 0.63200003
0.16097441 -0.077997908 0.63100004
0.16208076 -0.077997908 0.63100004
0.16292849 -0.077874303 0.63000005
0.1684515 -0.077874303 0.63000005
0.17452329 -0.077627078 0.62800002
0.17562439 -0.077627078 0.62800002
0.17644407 -0.077503473 0.62700003
0.17782657 -0.077627078 0.62800002
0.17892766 -0.077627078 0.62800002
0.18002875 -0.077627078 0.62800002
0.18084143 -0.077503473 0.62700003
-0.089007966 -0.086518236 0.71000004
-0.087763101 -0.086518236 0.71000004
-0.08627452 -0.08627452 0.708
-0.085033156 -0.08627452 0.708
-0.0837918 -0.08627452 0.708
-0.082550436 -0.08627452 0.708
-0.078715026 -0.086152665 0.70700002
-0.077365831 -0.086030804 0.70600003
-0.076127976 -0.086030804 0.70600003
-0.070974931 -0.085787095 0.70400006
-0.053160191 -0.084934093 0.69700003
-0.0518636 -0.084812239 0.69600004
-0.05064328 -0.084812239 0.69600004
-0.045564748 -0.084446669 0.69300002
-0.034379359 -0.083837382 0.68800002
-0.033124849 -0.083715528 0.68700004
-0.011309877 -0.082740679 0.67900002
0.0261948 -0.080912828 0.66400003
0.16012141 -0.077013411 0.63200003
0.1748012 -0.07664784 0.62900001
0.17590404 -0.07664784 0.62900001
0.17700689 -0.07664784 0.62900001
0.17810974 -0.07664784 0.62900001
0.17921259 -0.07664784 0.62900001
0.18031543 -0.07664784 0.62900001
0.18112986 -0.076525986 0.62800002
-0.099524461 -0.085753776 0.71400005
-0.098134942 -0.085633673 0.71300006
-0.089007966 -0.085273363 0.71000004
-0.087763101 -0.085273363 0.71000004
-0.086518236 -0.085273363 0.71000004
-0.085273363 -0.085273363 0.71000004
-0.080067717 -0.085033156 0.708
-0.078715026 -0.084913053 0.70700002
-0.077475414 -0.084913053 0.70700002
-0.073652275 -0.084792949 0.70600003
-0.067176335 -0.084432639 0.70300001
-0.06594374 -0.084432639 0.70300001
-0.064711146 -0.084432639 0.70300001
-0.055604335 -0.083712026 0.69700003
-0.054382265 -0.083712026 0.69700003
-0.05064328 -0.083591923 0.69600004
-0.02951123 -0.082510993 0.68700004
-0.028265487 -0.08239089 0.68600005
-0.027062699 -0.08239089 0.68600005
-0.017338714 -0.081910476 0.68200004
-0.01614294 -0.081910476 0.68200004
0.033080138 -0.079508409 0.66200006
0.13214172 -0.076385722 0.63600004
0.16062813 -0.076145515 0.634
0.16122952 -0.075905308 0.63200003
0.1684515 -0.075665101 0.63000005
0.1706607 -0.075665101 0.63000005
0.17149265 -0.075544998 0.62900001
0.17286991 -0.075665101 0.63000005
0.17369835 -0.075544998 0.62900001
0.1748012 -0.075544998 0.62900001
0.17590404 -0.075544998 0.62900001
0.17700689 -0.075544998 0.62900001
0.18141827 -0.075544998 0.62900001
0.18194076 -0.075304791 0.62700003
-0.10400335 -0.085093647 0.71900004
-0.10245691 -0.08485695 0.71700001
-0.10119977 -0.08485695 0.71700001
-0.086883806 -0.084383547 0.71300006
-0.085633673 -0.084383547 0.71300006
-0.084383547 -0.084383547 0.71300006
-0.080293901 -0.084028497 0.71000004
-0.07882636 -0.0837918 0.708
-0.077584997 -0.0837918 0.708
-0.07127738 -0.083673447 0.70700002
-0.067271896 -0.083318397 0.70400006
-0.066037543 -0.083318397 0.70400006
-0.064711146 -0.083200052 0.70300001
-0.055684112 -0.082608297 0.69800001
-0.054460287 -0.082608297 0.69800001
-0.028306689 -0.08130645 0.68700004
0.16982524 -0.074678853 0.63100004
0.1706607 -0.074560501 0.63000005
0.1717653 -0.074560501 0.63000005
0.17286991 -0.074560501 0.63000005
0.1739745 -0.074560501 0.63000005
0.17507909 -0.074560501 0.63000005
0.1761837 -0.074560501 0.63000005
0.17728829 -0.074560501 0.63000005
0.1806021 -0.074560501 0.63000005
0.18141827 -0.074442148 0.62900001
0.18252112 -0.074442148 0.62900001
0.18362397 -0.074442148 0.62900001
0.18472682 -0.074442148 0.62900001
-0.10400335 -0.083833002 0.71900004
-0.10245691 -0.083599806 0.71700001
-0.10119977 -0.083599806 0.71700001
-0.096884817 -0.083133422 0.71300006
-0.095634691 -0.083133422 0.71300006
-0.09411981 -0.082900226 0.71100003
-0.073756598 -0.082433842 0.70700002
-0.058131766 -0.081384473 0.69800001
-0.046982318 -0.081151277 0.69600004
-0.0456305 -0.080918089 0.69400001
-0.044349689 -0.080801487 0.69300002
0.028523227 -0.077420183 0.66400003
0.084513299 -0.075438045 0.64700001
0.14529435 -0.074038886 0.63500005
0.14663827 -0.07415548 0.63600004
0.15618168 -0.073922284 0.634
0.15729329 -0.073922284 0.634
0.1706607 -0.0734559 0.63000005
0.17507909 -0.0734559 0.63000005
0.1761837 -0.0734559 0.63000005
0.17728829 -0.0734559 0.63000005
0.1783929 -0.0734559 0.63000005
0.1794975 -0.0734559 0.63000005
0.1806021 -0.0734559 0.63000005
0.18141827 -0.073339306 0.62900001
0.18252112 -0.073339306 0.62900001
0.18362397 -0.073339306 0.62900001
-0.10371405 -0.082342669 0.71700001
-0.10231401 -0.082227826 0.71600002
-0.10119977 -0.082342669 0.71700001
-0.099803239 -0.082227826 0.71600002
-0.098272577 -0.08199814 0.71400005
-0.097020701 -0.08199814 0.71400005
-0.095634691 -0.081883296 0.71300006
-0.09411981 -0.08165361 0.71100003
-0.085633673 -0.081883296 0.71300006
-0.084383547 -0.081883296 0.71300006
-0.082900226 -0.08165361 0.71100003
-0.08130908 -0.08130908 0.708
-0.076343641 -0.08130908 0.708
-0.075102277 -0.08130908 0.708
-0.073756598 -0.081194237 0.70700002
-0.072516993 -0.081194237 0.70700002
-0.07127738 -0.081194237 0.70700002
-0.010134267 -0.078093469 0.68000001
-0.0089419996 -0.078093469 0.68000001
0.14329292 -0.073040359 0.63600004
0.14440803 -0.073040359 0.63600004
0.15618168 -0.072810672 0.634
0.15729329 -0.072810672 0.634
0.16455384 -0.072580986 0.63200003
